ncols        198
nrows        119
xllcorner    366353.824162
yllcorner    4567157.78907
cellsize     100.000000000000
NODATA_value -9999
32767 32767 444 444 460 460 476 476 495 512 512 526 526 541 541 560 574 574 575 575 585 585 596 632 632 670 670 706 706 707 748 748 741 741 702 702 666 634 634 618 618 604 571 571 577 577 589 589 592 596 596 606 606 617 617 622 633 633 644 644 666 666 699 700 700 721 721 759 759 759 750 750 746 746 722 722 710 699 699 630 630 573 573 530 504 504 490 490 480 475 475 474 474 464 464 453 448 448 456 456 454 454 435 434 434 432 432 423 423 434 481 481 464 464 411 411 421 403 403 432 432 452 452 476 484 484 538 538 528 528 520 499 499 470 470 469 452 452 466 466 415 415 360 341 341 330 330 316 316 317 323 323 335 335 372 372 364 383 383 408 408 371 371 369 370 370 360 360 352 352 339 332 332 324 324 333 333 340 319 319 300 300 292 276 276 258 258 245 245 239 242 242 239 239 234 234 233 32767
32767 32767 444 444 460 460 476 476 495 512 512 526 526 541 541 560 574 574 575 575 585 585 596 632 632 670 670 706 706 707 748 748 741 741 702 702 666 634 634 618 618 604 571 571 577 577 589 589 592 596 596 606 606 617 617 622 633 633 644 644 666 666 670 686 686 718 718 754 754 747 709 709 708 708 679 679 638 657 657 608 608 560 560 524 501 501 489 489 480 476 476 483 483 485 485 477 474 474 470 470 462 462 455 450 450 431 431 440 440 466 499 499 487 487 442 442 412 429 429 446 432 452 452 476 484 484 538 538 528 528 520 499 499 470 470 469 452 452 466 466 415 415 360 341 341 330 330 316 316 317 323 323 335 335 372 372 364 383 383 408 408 371 371 369 370 370 360 360 352 352 339 332 332 324 324 333 333 340 319 319 300 300 292 276 276 258 258 245 245 239 242 242 239 239 234 234 233 32767
32767 32767 457 457 473 473 484 484 492 496 496 510 510 522 522 533 552 552 590 590 639 639 655 676 676 706 706 707 707 750 758 758 720 720 689 643 643 606 606 581 581 571 567 571 577 577 589 589 592 596 596 606 606 617 617 622 633 633 644 644 666 666 670 686 686 718 718 754 754 747 709 709 708 708 679 679 638 657 657 608 608 560 524 524 501 501 489 489 480 476 476 483 483 485 485 477 474 474 470 470 462 462 455 450 450 431 431 440 440 466 499 499 487 487 442 442 412 429 429 446 446 490 490 528 564 564 593 593 602 566 566 578 578 567 567 549 522 522 506 506 487 487 445 399 399 353 353 350 350 373 326 326 300 300 303 303 324 350 350 368 368 358 358 344 352 352 345 345 342 342 340 338 338 330 330 312 302 302 291 319 300 300 292 276 276 258 258 245 245 239 242 242 239 239 234 234 233 32767
32767 32767 457 457 473 473 484 484 492 496 496 510 510 522 522 533 552 552 590 590 639 639 655 676 676 706 706 707 707 750 758 758 720 720 689 643 643 606 606 581 581 571 567 567 553 553 573 573 612 643 643 663 663 669 669 660 632 632 612 612 618 618 653 671 671 671 671 690 690 686 652 652 653 653 632 632 594 579 579 594 594 576 526 526 503 503 494 494 494 510 510 534 534 548 548 515 490 490 490 490 486 486 455 450 450 431 431 440 440 466 499 499 487 487 442 442 412 429 429 446 446 490 490 528 564 564 593 593 602 566 566 578 578 567 567 549 522 522 506 506 487 487 445 399 399 353 353 350 350 373 326 326 300 300 303 303 324 350 350 368 368 358 358 344 352 352 345 345 342 342 340 338 338 330 330 312 302 302 291 291 270 270 258 253 253 252 252 244 244 235 232 232 231 231 229 229 227 32767
32767 32767 428 428 438 438 444 444 450 464 464 493 493 535 535 579 601 601 617 617 633 633 651 656 656 706 706 707 750 750 758 758 720 720 689 643 643 606 606 581 581 571 567 567 553 553 573 573 612 643 643 663 663 669 669 660 632 632 612 612 618 618 653 671 671 671 671 690 690 686 652 652 653 653 632 594 594 579 579 594 594 576 526 526 503 503 494 494 494 510 510 534 534 548 548 515 490 490 490 490 486 486 476 467 467 453 453 459 459 480 502 502 511 511 470 470 446 509 509 509 509 481 517 517 543 543 579 579 598 604 604 607 607 566 566 545 530 530 493 493 432 432 412 404 404 386 386 383 383 362 304 304 319 319 328 328 338 330 330 330 330 358 358 344 352 352 345 345 342 340 340 338 338 330 330 312 302 302 291 291 270 270 258 253 253 252 252 244 244 235 232 232 231 231 229 229 227 32767
32767 32767 428 428 438 438 444 444 450 464 464 493 493 535 535 579 601 601 617 617 633 633 651 656 656 644 644 658 677 677 661 661 642 642 636 617 617 598 598 583 583 565 548 548 566 566 600 600 632 646 646 649 649 667 667 665 662 662 670 670 623 623 593 595 595 607 607 636 636 640 590 590 596 596 578 566 566 551 551 532 532 540 524 524 503 503 494 494 494 510 510 534 534 548 548 515 490 490 490 490 486 486 476 467 467 453 453 459 459 480 502 502 511 511 470 470 446 509 509 509 509 481 517 517 543 543 579 579 598 604 604 607 607 566 566 545 530 530 493 493 432 432 412 404 404 386 386 383 383 362 304 304 319 319 328 328 338 330 330 330 330 336 336 327 332 332 329 329 330 312 312 308 308 305 305 295 280 280 270 270 260 260 252 252 252 243 243 239 239 241 241 241 241 241 240 240 231 32767
32767 32767 408 408 423 423 436 444 450 464 464 493 493 535 535 579 601 601 617 617 633 651 651 656 656 644 644 658 677 677 661 661 642 642 636 617 617 598 598 583 583 565 548 548 566 566 600 600 632 646 646 649 649 667 667 665 662 662 670 670 623 623 593 595 595 607 607 636 640 640 590 590 596 596 578 566 566 551 551 532 532 540 524 524 511 511 512 512 529 544 544 537 537 562 562 550 519 519 512 512 502 502 488 467 467 494 494 516 516 522 512 512 515 515 501 501 501 567 567 574 574 538 532 532 575 575 585 585 591 570 570 562 562 556 556 498 438 438 421 421 378 378 412 404 404 386 386 383 383 362 304 304 319 319 328 328 338 330 330 330 330 336 327 327 332 332 329 329 330 312 312 308 308 305 305 295 280 280 270 270 260 260 252 252 252 243 243 239 239 241 241 241 241 241 240 240 231 32767
32767 32767 408 408 423 423 436 436 446 458 458 497 497 544 544 564 582 582 583 583 579 603 603 592 592 590 590 608 595 595 592 592 599 599 597 564 564 566 566 549 549 549 575 575 607 607 626 626 637 634 634 639 639 689 689 704 704 704 681 681 624 624 569 559 559 607 607 636 640 640 590 590 596 596 578 566 566 551 551 532 532 540 524 524 511 511 512 512 529 544 544 537 537 562 562 550 519 519 512 512 502 502 488 467 467 494 494 516 516 522 512 512 515 515 501 501 501 567 567 574 574 538 532 532 575 575 585 585 591 570 570 562 562 556 556 498 438 438 421 421 378 378 360 374 374 374 374 357 357 319 299 299 341 341 357 357 358 339 339 323 323 310 312 312 306 306 315 315 308 291 291 279 279 275 275 266 268 268 260 260 262 262 246 240 240 240 240 237 237 233 234 234 239 239 239 239 234 32767
32767 32767 408 408 423 423 436 436 446 458 458 497 497 544 564 564 582 582 583 583 579 603 603 592 592 590 590 608 595 595 592 592 599 599 597 564 564 566 566 549 549 549 575 575 607 607 626 626 637 634 634 639 639 689 689 704 704 704 681 681 624 569 569 559 559 565 565 580 581 581 560 560 542 542 527 526 526 532 532 523 523 509 523 523 545 545 556 556 567 546 546 519 519 516 516 546 566 566 536 536 514 514 515 490 490 501 501 544 565 565 558 558 577 577 586 563 563 595 595 611 611 568 574 574 575 575 585 585 591 570 570 562 562 556 556 498 438 438 421 421 378 378 360 374 374 374 374 357 357 319 299 299 341 341 357 357 358 339 339 323 323 310 312 312 306 306 315 315 308 291 291 279 279 275 275 266 268 268 260 260 262 262 246 240 240 240 240 237 237 233 234 234 239 239 239 239 234 32767
32767 32767 422 422 423 423 441 441 461 476 476 515 515 548 538 538 547 547 536 536 540 551 551 552 552 546 546 552 561 561 572 572 585 585 548 526 526 534 534 557 557 589 595 595 599 599 591 626 637 634 634 639 639 689 689 704 704 704 681 681 624 569 569 559 559 565 565 580 581 581 560 560 542 542 527 526 526 532 532 523 523 509 523 523 545 545 556 556 567 546 546 519 519 516 516 546 566 566 536 536 514 514 515 490 490 501 501 544 565 565 558 558 577 577 586 563 563 595 595 611 611 568 574 574 591 591 594 594 575 544 544 539 539 489 489 457 449 449 419 419 394 394 371 339 339 329 329 329 329 290 330 330 381 381 383 353 353 320 320 308 308 301 298 298 288 288 280 280 280 279 279 273 273 272 272 262 253 253 255 255 259 259 247 240 240 240 240 237 237 233 234 234 239 239 239 239 234 32767
32767 32767 422 422 423 423 441 461 461 476 476 515 515 548 538 538 547 547 536 536 540 551 551 552 552 546 546 552 561 561 572 572 585 585 548 526 526 534 534 557 557 589 595 595 599 599 591 591 594 631 631 663 663 669 685 685 658 658 615 615 580 565 565 554 554 542 542 542 533 533 525 525 514 514 508 512 512 517 517 507 507 497 538 538 586 586 595 595 558 514 514 509 509 496 496 535 551 551 548 548 532 514 514 501 501 497 501 544 565 565 558 558 577 577 586 563 563 595 595 611 611 568 574 574 591 591 594 594 575 544 544 539 539 489 489 457 449 449 419 419 394 394 371 339 339 329 329 329 329 290 330 330 381 381 383 353 353 320 320 308 308 301 298 298 288 288 280 280 280 279 279 273 273 272 272 262 253 253 255 255 259 259 247 235 235 228 228 229 229 230 225 225 229 229 239 239 237 32767
32767 32767 437 437 453 453 474 509 509 532 532 539 539 520 500 500 510 510 519 519 509 520 520 533 533 537 537 554 571 561 572 572 585 585 548 526 526 534 534 557 557 589 595 595 599 599 591 591 594 631 631 663 663 669 685 685 658 658 615 615 580 565 565 554 554 542 542 542 533 533 525 525 514 514 508 512 512 517 517 507 507 497 538 538 586 586 595 595 558 514 514 509 509 496 496 535 551 551 548 548 532 514 514 501 501 497 497 519 542 542 565 565 595 595 623 607 607 598 598 618 618 618 610 610 601 601 606 606 596 586 586 557 557 509 509 489 484 484 452 452 427 427 410 376 376 323 323 297 289 289 360 360 395 395 375 333 333 300 300 291 291 289 285 285 288 288 280 280 280 279 279 273 273 272 272 262 253 253 255 255 259 259 247 235 235 228 228 229 229 230 225 225 229 229 239 237 237 32767
32767 32767 437 437 453 453 474 509 509 532 532 539 539 520 500 500 510 510 519 519 509 520 520 533 533 537 537 554 571 571 578 578 563 563 530 510 510 535 535 541 541 542 551 551 553 553 558 598 598 620 620 613 613 622 640 640 629 629 624 624 614 609 609 588 588 580 580 576 562 562 540 540 519 519 503 498 498 495 495 489 489 485 511 511 560 560 580 580 558 514 514 509 509 496 535 535 551 551 548 548 532 514 514 501 501 497 497 519 542 542 565 565 595 595 623 607 607 598 598 618 618 618 610 610 601 601 606 606 596 586 586 557 557 509 509 489 484 484 452 452 427 427 410 376 376 323 323 297 289 289 360 360 395 395 375 333 333 300 300 291 291 289 285 285 273 273 267 267 263 263 263 266 266 274 274 263 250 250 243 243 249 249 245 236 236 227 227 221 221 220 219 219 220 220 229 236 236 32767
32767 32767 457 457 460 460 477 515 515 526 526 539 539 520 500 500 510 510 519 519 509 520 520 533 533 537 537 554 571 571 578 578 563 563 530 510 510 535 535 541 541 542 551 551 553 553 558 598 598 620 620 613 613 622 640 640 629 629 624 624 614 609 609 588 588 580 580 576 562 562 540 540 519 519 503 498 498 495 495 489 489 485 511 511 560 560 580 580 549 511 511 488 488 477 502 502 540 540 553 553 556 530 530 537 537 525 525 512 532 532 565 565 584 584 562 558 558 570 570 592 592 627 615 615 573 573 559 559 558 542 542 532 532 506 506 476 455 455 456 456 455 418 418 380 380 354 323 297 289 289 360 360 395 395 375 333 333 300 300 291 291 289 285 285 273 273 267 267 263 263 263 266 266 274 274 263 250 250 243 243 249 249 245 236 236 227 227 221 221 220 219 219 220 220 229 236 236 32767
32767 32767 457 457 460 460 477 515 515 526 526 509 509 485 483 483 496 496 494 494 517 548 548 562 562 554 554 551 560 560 561 561 538 538 511 502 502 504 504 506 539 539 536 536 536 536 549 575 575 596 596 622 622 630 639 639 655 655 685 685 699 678 678 619 619 586 586 573 548 562 540 540 519 519 503 498 498 495 495 489 489 485 511 511 560 560 580 580 549 511 511 488 488 477 502 502 540 540 553 553 556 530 530 537 537 525 525 512 532 532 565 565 584 584 562 558 558 570 570 592 592 627 615 615 573 573 559 559 558 542 542 532 532 506 506 476 455 455 456 456 455 418 418 380 380 354 354 315 284 284 338 338 352 352 337 305 305 285 285 280 280 276 270 270 269 269 263 263 258 251 251 248 248 254 254 258 260 260 245 245 234 234 243 242 242 235 235 226 218 218 214 214 212 212 214 219 219 32767
32767 32767 457 457 460 460 477 515 515 526 526 509 509 485 483 483 496 496 494 494 517 548 548 562 562 554 554 551 560 560 561 561 538 538 511 502 502 504 504 506 539 539 536 536 536 536 549 575 575 596 596 622 622 630 639 639 655 655 685 685 699 678 678 619 619 586 586 573 548 548 539 539 519 519 522 539 539 554 554 535 535 493 488 488 541 541 532 551 551 523 523 495 495 469 491 491 504 504 531 531 561 550 550 549 549 549 549 541 551 551 573 573 552 552 525 528 528 555 555 588 588 605 579 579 547 547 521 521 558 542 542 532 532 506 476 476 455 455 456 456 455 418 418 380 380 354 354 315 284 284 338 338 352 352 337 305 305 285 285 280 280 276 270 270 269 269 263 263 258 251 251 248 248 254 254 258 260 260 245 245 234 234 243 242 242 235 235 226 218 218 214 214 212 212 214 219 219 32767
32767 32767 446 446 446 446 474 487 487 473 473 477 477 475 470 470 503 503 530 530 532 528 528 535 535 545 545 547 521 521 519 519 536 531 531 547 547 528 528 495 503 503 522 522 544 544 575 605 605 640 640 622 622 630 639 639 655 655 685 685 699 678 678 619 619 586 586 573 548 548 539 539 519 519 522 539 539 554 554 535 535 493 488 488 541 541 532 551 551 523 523 495 495 469 491 491 504 504 531 531 561 550 550 549 549 549 549 541 551 551 573 573 552 552 525 528 528 555 555 588 588 605 579 579 547 547 521 521 520 513 513 489 489 487 476 476 465 465 418 418 403 372 372 338 338 311 311 302 282 282 276 276 267 267 280 280 280 271 271 268 268 266 263 263 258 258 259 259 257 247 247 243 243 238 238 247 257 257 243 243 229 228 228 241 241 236 236 226 218 218 214 214 212 212 214 219 219 32767
32767 32767 446 446 446 446 474 487 487 473 473 477 477 475 470 470 503 503 530 530 532 528 528 535 535 545 545 547 521 521 519 519 536 531 531 547 547 528 528 495 503 503 522 522 544 544 575 605 605 640 640 675 675 696 714 714 742 742 767 767 709 631 631 594 594 568 568 561 544 544 532 532 525 525 548 582 582 605 605 543 503 503 475 475 502 502 490 493 493 484 484 488 488 460 468 468 486 486 503 503 529 558 558 574 574 570 570 567 569 569 573 573 552 552 525 528 528 555 555 588 588 605 579 579 547 547 521 520 520 513 513 489 489 487 476 476 465 465 418 418 403 372 372 338 338 311 311 302 282 282 276 276 267 267 280 280 280 271 271 268 268 266 263 263 258 258 259 259 257 247 247 243 243 238 238 247 257 257 243 243 229 228 228 241 241 236 236 225 218 218 211 211 207 207 205 207 207 32767
32767 32767 414 414 439 439 457 466 466 453 453 451 451 463 505 505 504 504 494 494 520 546 546 542 542 515 495 495 517 517 561 561 550 531 531 547 547 528 528 495 503 503 522 522 544 544 575 605 605 640 640 675 675 696 714 714 742 742 767 767 709 631 631 594 594 568 568 561 544 544 532 532 525 525 548 582 582 605 605 543 503 503 475 475 502 502 490 493 493 484 484 488 488 460 468 468 486 486 503 503 529 558 558 574 574 570 570 567 569 569 559 559 535 535 499 532 532 563 563 565 565 554 540 540 528 528 504 479 479 470 470 445 445 436 454 454 429 429 424 424 375 348 348 354 354 391 391 400 356 356 298 298 254 254 263 262 262 260 260 258 258 259 262 262 263 263 246 246 257 247 247 243 243 238 247 247 257 257 243 243 229 228 228 241 241 236 236 225 218 218 211 211 207 207 205 207 207 32767
32767 32767 414 414 439 439 457 466 466 453 453 451 451 463 505 505 504 504 494 494 520 546 546 542 542 515 495 495 517 517 561 561 550 528 528 508 508 492 492 497 516 516 538 538 564 564 598 627 627 672 672 757 757 813 805 805 795 795 763 763 714 649 649 608 608 594 594 586 556 556 541 541 561 590 590 614 614 615 615 583 540 540 485 485 472 472 466 463 463 454 454 488 488 460 468 468 486 486 503 503 529 558 558 574 574 570 570 567 569 569 559 559 535 535 499 532 532 563 563 565 554 554 540 540 528 528 504 479 479 470 470 445 445 436 454 454 429 429 424 424 375 348 348 354 354 391 391 400 356 356 298 298 254 254 263 262 262 260 260 258 258 259 262 262 263 263 246 246 239 236 236 234 234 235 234 234 248 248 241 241 225 222 222 238 238 233 233 223 216 216 211 211 204 204 200 199 199 32767
32767 32767 414 414 448 448 465 440 440 440 440 467 467 470 460 505 504 504 494 520 520 546 546 542 542 515 495 495 517 517 561 561 550 528 528 508 508 492 492 497 516 516 538 538 564 564 598 627 627 672 672 757 757 813 805 805 795 795 763 763 714 649 649 608 608 594 594 586 556 556 541 541 561 590 590 614 614 615 615 583 540 540 485 485 472 472 466 463 463 454 454 456 456 445 449 449 482 482 497 497 531 550 550 551 551 530 530 544 555 555 558 558 532 532 493 487 487 510 510 516 524 524 501 501 516 516 499 484 484 470 470 457 457 412 392 392 375 375 388 388 381 373 373 389 389 421 421 416 359 359 298 298 254 254 263 262 262 260 260 258 258 259 262 262 263 263 246 239 239 236 236 234 234 235 234 234 248 248 241 241 225 222 222 238 238 233 233 223 216 216 211 211 204 204 200 199 199 32767
32767 32767 414 414 448 448 465 440 440 440 440 467 467 470 460 460 468 468 495 507 507 505 505 494 494 478 511 511 541 541 517 517 485 473 473 483 483 494 494 514 546 546 554 554 581 581 633 697 697 767 767 788 788 789 729 729 693 693 678 678 664 628 628 601 601 603 599 599 563 563 572 572 593 590 590 614 614 615 615 583 540 540 485 485 472 472 466 463 463 454 454 456 456 445 449 449 482 482 497 497 531 550 550 551 551 530 530 544 555 555 558 558 532 493 493 487 487 510 510 516 524 524 501 501 516 516 499 484 484 470 470 457 457 412 392 392 375 375 388 388 381 373 373 389 389 421 421 416 359 359 298 298 259 259 245 242 242 247 247 249 249 251 255 255 267 267 253 235 235 229 229 225 225 228 226 226 236 236 235 235 221 216 216 224 224 230 230 224 215 215 208 208 202 202 200 196 196 32767
32767 32767 414 414 448 448 465 440 440 440 440 467 470 470 460 460 468 468 495 507 507 505 505 494 494 478 511 511 541 541 517 517 485 473 473 483 483 494 494 514 546 546 554 554 581 581 633 697 697 767 767 788 788 789 729 729 693 693 678 678 664 628 628 601 601 603 599 599 563 563 572 572 593 595 595 574 574 573 573 550 519 519 501 501 511 511 510 509 509 494 494 472 472 443 431 431 454 454 482 482 499 497 497 480 480 494 494 514 525 525 524 524 529 500 500 481 481 460 460 490 486 486 470 470 490 490 506 491 491 478 478 466 457 412 392 392 375 375 388 388 381 373 373 389 389 421 421 416 359 359 298 298 259 259 245 242 242 247 247 249 251 251 255 255 267 267 253 235 235 229 229 225 225 228 226 226 236 236 235 235 221 216 216 224 224 230 230 224 215 215 208 208 202 202 200 196 196 32767
32767 32767 435 435 464 464 441 434 434 446 446 436 455 455 470 470 479 479 473 470 470 468 468 463 463 490 517 517 499 499 476 476 456 475 475 498 498 527 527 536 568 568 605 605 647 647 690 760 760 776 776 764 764 691 655 729 693 693 678 664 664 628 628 601 601 603 599 599 563 563 572 572 593 595 595 574 574 573 573 550 519 519 501 501 511 511 510 509 509 494 494 472 472 443 431 431 454 454 482 482 499 497 497 480 480 494 494 514 525 525 524 524 529 500 500 481 481 460 460 490 486 486 470 470 490 490 506 491 491 478 478 466 466 446 397 397 358 358 369 369 384 402 402 418 418 398 398 359 325 325 293 293 276 276 263 249 249 235 235 242 249 249 252 252 255 255 256 247 247 236 236 227 227 218 217 217 219 219 228 228 218 211 211 209 209 214 214 214 211 211 202 208 202 202 200 196 196 32767
32767 32767 435 435 464 441 441 434 434 446 446 436 455 455 470 470 479 479 473 470 470 468 468 463 463 490 517 517 499 499 476 476 456 475 475 498 498 527 527 536 568 568 605 605 647 647 690 760 760 776 776 764 764 691 655 655 623 623 605 591 591 587 587 562 562 587 609 609 587 587 590 590 563 540 540 538 538 514 514 511 519 519 518 518 483 483 507 490 490 488 488 480 480 454 427 427 425 425 447 447 440 433 433 471 471 502 519 519 530 530 493 493 501 496 500 481 481 460 460 490 486 486 470 470 490 490 506 491 491 478 478 466 466 446 397 397 358 358 369 369 384 402 402 418 418 398 398 359 325 325 293 293 276 263 263 249 249 235 235 242 249 249 252 252 255 255 256 247 247 236 236 227 227 218 217 217 219 219 228 228 218 211 211 209 209 214 214 214 211 211 202 202 200 200 198 196 196 32767
32767 32767 437 437 423 427 427 444 444 413 413 448 476 476 462 462 455 455 445 445 445 449 449 463 463 495 477 477 455 455 450 450 452 474 474 515 515 527 527 536 568 568 605 605 647 647 690 760 760 776 776 764 691 691 655 655 623 623 605 591 591 587 587 562 562 587 609 609 587 587 590 590 563 540 540 538 538 514 514 511 519 519 518 518 483 483 507 490 490 488 488 480 480 454 427 427 425 425 447 447 440 433 433 471 471 502 519 519 530 530 493 493 501 496 496 462 462 444 444 463 486 486 472 472 446 446 462 480 480 473 473 456 456 418 368 368 344 344 341 341 391 427 427 430 430 386 386 367 319 319 286 286 278 262 262 245 245 230 230 238 247 247 254 254 257 257 251 243 243 236 236 228 227 218 217 217 219 219 228 228 218 211 211 209 209 214 214 214 211 211 202 202 200 200 198 196 196 32767
32767 32767 437 437 423 427 427 444 444 413 413 448 476 476 462 462 455 455 445 445 445 449 449 463 463 495 477 477 455 455 450 450 452 474 474 515 515 537 537 575 602 602 610 610 658 658 699 686 686 640 640 642 610 610 575 575 581 581 583 555 555 539 539 549 549 603 631 631 580 580 560 560 535 515 515 495 495 490 490 476 475 475 490 490 464 464 450 467 467 492 492 495 495 469 442 427 425 425 447 440 440 433 433 471 471 502 519 519 530 530 493 493 501 496 496 462 462 444 444 463 486 486 472 472 446 446 462 480 480 473 473 456 456 418 368 368 344 344 341 341 391 427 427 430 430 386 386 367 319 319 286 286 278 262 262 245 245 230 230 238 247 247 254 254 257 257 251 243 243 236 236 228 228 221 213 213 212 212 217 217 216 208 208 202 202 206 206 206 199 199 197 197 195 195 191 190 190 32767
32767 32767 404 404 417 436 436 408 408 403 403 444 438 438 423 423 430 430 445 445 445 449 449 463 463 495 477 477 455 455 450 450 452 474 474 515 515 537 537 575 602 602 610 610 658 699 699 686 686 640 640 642 610 610 575 575 581 581 583 555 555 539 539 549 549 603 631 631 580 580 560 560 535 515 515 495 495 490 490 476 475 475 490 490 464 464 450 467 467 492 492 495 495 469 442 442 432 432 422 403 403 392 392 425 425 436 440 440 484 484 488 488 461 449 449 442 442 436 436 414 442 442 462 462 434 434 451 454 454 431 431 418 418 401 350 350 342 342 326 326 370 396 396 415 415 378 339 339 291 291 269 269 264 255 262 245 245 230 230 238 247 247 254 254 257 257 251 243 243 236 236 228 228 221 213 213 212 212 217 217 216 208 208 202 202 206 206 206 199 199 197 197 195 195 191 190 190 32767
32767 32767 404 404 417 436 436 408 408 403 403 444 438 438 423 423 430 430 430 432 432 444 444 483 483 496 452 452 431 431 445 445 452 473 473 500 500 545 596 596 654 654 632 632 602 606 606 596 596 564 564 547 542 542 516 516 516 516 519 519 519 522 522 555 555 603 599 599 568 568 550 550 547 524 524 516 516 490 490 476 475 475 490 490 464 464 450 467 467 492 492 495 469 469 442 442 432 432 422 403 403 392 392 425 425 436 440 440 484 484 488 488 461 449 449 442 442 436 436 414 442 442 462 462 434 434 451 454 454 431 431 418 418 401 350 350 342 342 326 326 370 396 396 415 415 378 339 339 291 291 269 269 264 255 255 246 246 228 228 233 242 242 243 243 243 243 247 236 236 225 225 226 226 226 219 219 210 210 207 207 209 204 204 199 199 199 199 198 194 194 191 191 188 186 186 184 184 32767
32767 32767 404 404 417 436 436 408 408 403 403 444 438 438 423 423 430 430 430 432 432 444 444 483 483 496 452 452 431 431 445 445 452 473 473 500 500 545 596 596 654 654 632 632 602 606 606 596 596 564 564 547 542 542 516 516 516 516 519 519 519 522 522 555 555 603 599 599 568 568 550 550 547 524 524 516 516 516 516 507 470 470 451 451 446 446 431 445 445 491 491 497 461 461 451 451 478 478 485 433 433 407 407 385 385 381 365 365 434 434 450 450 444 451 451 412 412 397 397 392 449 449 451 451 412 412 411 392 392 364 364 357 357 377 348 348 342 342 326 370 370 396 396 415 415 378 339 339 291 291 269 269 264 255 255 246 246 228 228 233 242 242 243 243 243 243 247 236 236 225 225 226 226 226 219 219 210 210 207 207 209 204 204 199 199 199 199 198 194 194 191 191 188 186 186 184 184 32767
32767 32767 415 415 422 419 419 388 388 395 395 422 429 429 429 429 421 421 421 438 438 472 472 492 492 452 420 420 422 422 434 448 448 478 478 508 508 589 657 657 642 642 565 565 541 551 551 543 543 523 523 499 489 489 488 488 508 508 519 519 519 522 522 555 555 603 599 599 568 568 550 550 547 524 524 516 516 516 516 507 470 470 451 451 446 431 431 445 445 491 491 497 461 461 451 451 478 478 485 433 433 407 407 385 385 381 365 365 434 434 450 450 444 451 451 412 412 397 397 392 449 449 451 451 412 412 411 392 392 364 364 357 357 377 348 348 315 315 308 333 333 358 358 361 361 325 291 291 269 269 260 260 259 253 253 241 241 222 222 226 238 238 237 237 234 234 232 232 232 228 228 219 219 213 209 209 204 204 200 200 200 198 198 196 196 192 190 190 186 186 185 185 183 181 186 184 184 32767
32767 32767 415 415 422 419 419 388 388 395 395 422 429 429 429 429 421 421 421 438 438 472 472 492 492 452 420 420 422 422 434 448 448 478 478 508 508 589 657 657 642 642 565 565 541 551 551 543 543 523 523 499 489 489 488 488 508 508 519 529 529 536 536 562 562 603 588 588 568 568 536 536 523 517 517 504 504 489 489 479 466 466 487 487 490 444 444 406 406 428 428 463 473 473 502 502 525 525 529 486 486 458 458 436 436 416 359 359 380 380 402 402 433 421 421 422 422 397 397 392 449 449 451 451 412 412 411 392 392 364 364 357 377 377 348 348 315 315 308 333 333 358 358 361 361 325 291 291 269 269 260 260 259 253 253 241 241 222 222 226 238 238 237 237 234 234 232 232 232 228 228 219 219 213 209 209 204 204 200 200 200 198 198 196 196 192 190 190 186 186 185 185 183 181 181 178 178 32767
32767 32767 408 408 397 379 379 380 380 395 395 416 426 426 422 422 430 430 434 458 458 460 460 428 407 407 415 415 442 442 468 485 485 494 494 552 552 637 658 658 567 642 565 565 541 551 551 543 543 523 523 499 489 489 488 488 508 508 519 529 529 536 536 562 562 603 588 588 568 568 536 536 523 517 517 504 504 489 479 479 466 466 487 487 490 444 444 406 406 428 428 463 473 473 502 502 525 525 529 486 486 458 458 436 436 416 359 359 380 380 402 402 433 421 421 422 422 383 383 379 408 408 391 391 403 403 394 371 371 358 358 329 354 354 327 327 312 312 292 294 294 301 301 302 302 285 273 273 262 262 255 255 252 248 248 238 238 227 227 220 232 232 235 235 234 234 225 216 216 215 215 220 220 215 211 211 204 204 200 200 200 198 198 196 196 192 190 190 186 186 185 185 183 181 181 178 178 32767
32767 32767 408 408 397 379 379 380 380 395 395 416 426 426 422 422 430 430 434 458 458 460 460 428 407 407 415 415 442 442 468 485 485 494 494 552 552 637 658 658 567 567 509 509 498 494 494 502 502 481 481 463 469 469 490 490 501 501 506 531 531 577 577 605 605 615 576 576 534 534 508 506 506 516 516 526 526 501 489 489 493 493 517 517 496 455 455 413 413 391 391 426 472 472 516 516 520 520 503 486 486 458 458 436 436 416 359 359 380 380 402 402 433 421 421 422 422 383 383 379 408 408 391 391 403 394 394 371 371 358 358 329 354 354 327 327 312 312 292 294 294 301 301 302 302 285 273 273 262 262 255 255 252 248 248 238 238 227 227 220 232 232 235 235 234 234 225 216 216 215 215 220 220 215 211 211 203 203 200 197 197 196 196 192 192 190 186 186 184 184 182 182 178 177 177 175 175 32767
32767 32767 377 377 368 373 373 391 391 400 400 404 403 403 410 410 421 422 422 415 415 402 460 428 407 407 415 415 442 442 468 485 485 494 494 552 552 637 658 658 567 567 509 509 498 494 494 502 502 481 481 463 469 469 490 490 501 501 506 531 531 577 577 605 605 615 576 576 534 534 508 506 506 516 516 526 526 501 489 489 493 493 517 517 496 455 455 413 413 391 391 426 472 472 516 516 520 520 503 495 495 463 463 415 415 405 354 354 386 386 419 419 409 389 389 387 387 376 376 353 360 360 363 363 366 349 349 345 345 329 329 309 330 330 310 310 289 289 281 278 278 282 282 284 284 270 264 264 263 263 254 254 246 238 238 234 234 223 227 220 232 232 235 235 234 234 225 216 216 215 215 220 215 215 211 211 203 203 200 197 197 196 196 192 192 190 186 186 184 184 182 182 178 177 177 175 175 32767
32767 32767 377 377 368 373 373 391 391 400 400 404 403 403 410 410 421 422 422 415 415 402 402 397 413 413 449 449 497 497 544 557 557 544 544 599 599 627 626 626 551 551 492 492 465 457 457 460 460 450 450 449 490 490 521 521 512 512 529 560 560 576 576 621 598 598 591 591 565 565 528 495 495 472 472 496 496 525 515 515 495 493 517 517 496 455 455 413 413 391 391 426 472 472 516 516 520 520 503 495 495 463 463 415 415 405 354 354 386 386 419 419 409 389 389 387 387 376 353 353 360 360 363 363 366 349 349 345 345 329 329 309 330 330 310 310 289 289 281 278 278 282 282 284 284 270 264 264 263 263 254 254 246 238 238 234 234 223 223 213 229 229 231 231 227 227 219 213 213 206 206 204 207 207 209 209 202 202 200 197 197 192 192 187 187 185 184 184 183 183 181 181 177 174 174 172 172 32767
32767 32767 363 363 368 373 373 391 391 400 404 404 403 403 410 410 421 422 422 415 415 402 402 397 413 413 449 449 497 497 544 557 557 544 544 599 599 627 626 626 551 551 492 492 465 457 457 460 460 450 450 449 490 490 521 521 512 512 529 560 560 576 576 621 598 598 591 591 565 565 528 495 495 472 472 496 496 525 515 515 495 495 497 497 477 459 459 410 410 381 381 379 415 415 440 440 458 458 462 445 445 416 416 417 417 382 344 344 352 352 384 384 370 376 376 374 374 341 334 334 342 342 325 325 331 318 318 318 318 299 299 290 292 292 292 292 285 285 275 266 278 282 282 284 284 270 264 264 263 263 254 254 246 238 238 234 234 223 223 213 229 229 231 231 227 219 219 213 213 206 206 204 207 207 209 209 202 202 200 197 197 192 192 187 187 185 184 184 183 183 181 181 177 174 174 172 172 32767
32767 32767 363 363 365 380 380 391 391 393 372 372 368 368 390 390 398 386 386 381 381 391 391 414 443 443 485 485 545 545 631 645 645 619 619 600 600 532 519 519 507 507 473 473 449 437 437 433 433 432 432 466 508 508 487 487 490 532 532 587 587 597 597 621 598 598 591 591 565 565 528 495 495 472 472 496 496 525 515 515 495 495 497 497 477 459 459 410 410 381 381 379 415 415 440 440 458 458 462 445 445 416 416 417 417 382 344 344 352 352 384 370 370 376 376 374 374 341 334 334 342 342 325 325 331 318 318 318 318 299 299 290 292 292 292 292 285 285 275 266 266 269 269 274 274 261 251 251 250 250 246 246 242 234 234 230 230 218 218 208 224 224 227 227 232 224 224 211 211 201 201 195 195 195 192 192 195 195 197 196 196 189 189 186 186 183 181 181 180 180 177 177 174 172 172 171 171 32767
32767 32767 363 365 365 380 380 391 391 393 372 372 368 368 390 390 398 386 386 381 381 391 391 414 443 443 485 485 545 545 631 645 645 619 619 600 600 532 519 519 507 507 473 473 449 437 437 433 433 432 432 466 508 508 487 487 490 532 532 587 587 597 597 570 529 529 552 552 535 535 495 466 466 449 449 449 449 468 468 468 462 462 439 439 451 461 461 436 436 415 415 373 360 360 387 387 438 438 418 420 420 395 395 401 401 390 337 337 346 346 364 344 344 345 345 335 335 331 316 316 319 342 325 325 331 318 318 318 318 299 299 290 292 292 292 292 285 285 275 266 266 269 269 274 274 261 251 251 250 250 246 246 242 234 234 230 230 218 208 208 224 224 227 227 232 224 224 211 211 201 201 195 195 195 192 192 195 195 197 196 196 189 189 186 186 183 181 181 180 180 177 177 174 172 172 171 171 32767
32767 32767 372 384 384 392 392 386 386 375 367 367 367 367 375 375 384 396 396 411 411 423 423 435 455 455 498 498 556 556 624 595 595 577 577 541 541 481 454 454 452 452 441 441 449 437 437 433 433 432 466 466 508 508 487 487 490 532 532 587 587 597 597 570 529 529 552 552 535 535 495 466 466 449 449 449 449 468 468 468 462 462 439 439 451 461 461 436 436 415 415 373 360 360 387 387 438 438 418 420 420 395 395 401 390 390 337 337 346 346 364 344 344 345 345 335 335 331 316 316 319 319 329 329 313 302 302 287 287 283 283 274 271 271 272 272 271 271 266 259 259 262 262 258 258 247 247 247 240 240 237 237 233 228 228 224 224 208 214 214 218 218 225 225 225 220 220 209 209 199 199 197 191 191 186 186 189 189 196 196 196 189 189 186 186 183 181 181 180 180 177 177 174 172 172 171 171 32767
32767 32767 372 384 384 392 392 386 386 375 367 367 367 367 375 375 384 396 396 411 411 423 423 435 455 455 498 498 556 556 624 595 595 577 577 541 541 481 454 454 452 452 441 441 435 438 438 420 420 448 472 472 461 461 463 463 493 538 538 599 599 584 584 564 518 518 484 484 496 496 476 466 466 487 487 466 466 422 419 419 418 418 417 417 438 426 426 414 414 388 388 389 369 369 342 342 371 371 381 395 395 396 396 401 390 390 337 337 346 346 364 344 344 345 345 335 335 331 316 316 319 319 329 329 313 302 302 287 287 283 283 274 271 271 272 272 271 271 266 259 259 262 262 258 258 247 247 247 240 240 237 233 233 228 228 224 224 208 214 214 218 218 225 225 225 220 220 209 209 199 199 197 191 191 186 186 189 189 196 196 196 191 191 180 180 180 180 180 176 176 172 172 172 169 169 168 168 32767
32767 32767 376 378 378 363 363 353 353 354 367 367 383 383 402 402 400 422 422 435 435 457 457 479 492 492 498 498 556 556 624 595 595 577 577 541 541 481 454 454 452 452 441 435 435 438 438 420 420 448 472 472 461 461 463 463 493 538 538 599 599 584 584 564 518 518 484 484 496 496 476 466 466 487 487 466 466 422 419 419 418 418 417 417 438 426 426 414 414 388 388 389 369 369 342 342 371 381 381 395 395 396 396 365 353 353 324 324 376 376 385 361 361 334 334 322 322 313 302 302 302 302 324 324 323 313 313 292 292 279 279 266 258 258 258 258 255 255 255 250 250 253 253 254 254 240 233 233 227 227 229 225 225 220 220 218 218 207 212 212 216 216 225 225 225 220 220 209 209 199 199 197 191 191 186 186 189 189 196 196 196 191 191 180 180 180 180 180 176 176 172 172 172 169 169 168 168 32767
32767 32767 376 378 378 363 363 353 353 354 367 367 383 383 402 402 400 422 422 435 435 457 457 479 492 492 534 534 603 603 597 535 535 497 497 464 464 447 430 430 418 418 424 432 432 420 420 414 414 438 425 425 432 432 456 456 494 551 551 620 620 641 641 589 541 541 490 490 442 442 443 435 435 441 441 439 439 420 396 396 415 415 413 413 386 426 426 414 414 388 388 389 369 369 342 342 371 381 381 395 395 396 396 365 353 353 324 324 376 376 385 361 361 334 334 322 322 313 302 302 302 302 324 324 323 313 313 292 292 279 279 266 258 258 258 258 255 255 255 250 250 253 253 254 240 240 233 233 227 227 229 225 225 220 220 218 218 207 212 212 216 216 225 225 225 225 225 210 210 198 198 194 189 189 183 183 180 180 178 184 184 192 192 187 187 177 169 169 171 171 171 171 171 167 167 164 164 32767
32767 32767 367 357 357 344 344 353 353 354 367 367 383 383 402 402 400 422 422 435 435 457 457 479 492 492 534 534 603 603 597 535 535 497 497 464 447 447 430 430 418 418 424 432 432 420 420 414 414 438 425 425 432 432 456 456 494 551 551 620 620 641 641 589 541 541 490 490 442 442 443 435 435 441 441 439 439 420 396 396 415 415 413 413 386 379 379 374 374 388 359 359 355 355 343 343 337 385 385 373 373 357 357 341 338 338 317 317 362 362 404 371 371 327 327 336 336 323 307 307 290 290 302 302 296 277 277 273 273 276 276 279 258 258 248 248 244 244 243 241 241 247 247 253 240 240 233 233 227 227 229 225 225 220 220 218 218 207 212 212 216 216 225 225 225 225 225 210 210 198 198 194 189 189 183 183 180 180 178 184 184 192 192 187 187 177 169 169 171 171 171 171 171 167 167 164 164 32767
32767 32767 367 357 357 344 344 353 353 379 389 389 410 410 428 428 422 439 439 474 474 521 521 576 587 587 570 570 567 567 570 549 549 503 503 454 421 421 405 405 402 402 407 416 416 410 410 403 403 400 399 399 432 432 474 474 532 559 559 554 554 572 572 592 544 544 471 490 442 442 443 435 435 441 441 439 439 420 396 396 415 415 413 413 386 379 379 374 374 388 359 359 355 355 343 343 337 385 385 373 373 357 357 341 338 338 317 317 362 362 404 371 371 327 327 336 336 323 307 307 290 290 302 302 296 277 277 273 273 276 276 279 258 258 248 248 244 243 243 241 241 247 247 253 251 251 240 240 229 229 224 216 216 214 214 214 214 204 203 203 211 211 216 216 222 223 223 215 215 207 207 204 194 194 184 184 178 178 176 173 173 179 179 183 183 185 167 167 162 162 162 166 166 166 166 163 163 32767
32767 32767 367 357 357 344 344 353 353 379 389 389 410 410 428 428 422 439 439 474 474 521 521 576 587 587 570 570 567 570 570 549 549 503 503 454 421 421 405 405 402 402 407 416 416 410 410 403 403 400 399 399 432 432 474 474 532 559 559 554 554 572 572 592 544 544 471 471 433 433 404 402 402 415 415 419 419 411 386 386 389 389 416 413 413 386 386 354 354 349 341 341 329 329 321 321 339 374 374 394 394 366 366 324 308 308 310 310 339 339 346 300 300 281 281 270 270 269 279 279 288 288 271 271 271 277 277 273 273 276 276 279 258 258 248 248 244 243 243 241 241 247 247 253 251 251 240 240 229 229 224 216 216 214 214 214 214 204 203 203 211 211 216 216 222 223 223 215 215 207 207 204 194 194 184 184 178 178 176 173 173 179 179 183 183 185 167 167 162 162 162 166 166 166 166 163 163 32767
32767 32767 351 343 343 343 343 385 385 396 405 405 418 418 433 433 456 463 463 499 499 547 547 581 546 546 524 524 480 483 483 471 471 445 445 423 395 395 388 388 390 390 388 391 391 412 412 399 403 400 399 399 432 432 474 474 532 559 559 554 554 572 572 592 544 544 471 471 433 433 404 402 402 415 415 419 411 411 386 386 389 389 416 413 413 386 386 354 354 349 341 341 329 329 321 321 339 374 374 394 394 366 366 324 308 308 310 310 339 339 346 300 300 281 281 270 270 269 279 279 288 288 271 271 271 276 276 259 259 256 259 259 255 255 251 251 241 235 235 234 234 245 245 254 255 255 241 241 229 229 224 218 218 209 209 209 209 206 202 202 204 204 216 216 206 200 200 196 196 198 198 198 194 194 185 185 177 177 174 169 169 167 167 170 185 185 167 167 162 162 162 166 166 166 166 163 163 32767
32767 32767 351 343 343 343 343 385 385 396 405 405 418 418 433 433 456 463 463 499 499 547 581 581 546 546 524 524 480 483 483 471 471 445 445 423 395 395 388 388 390 390 388 391 391 412 412 399 399 378 392 392 421 421 474 474 528 498 498 459 459 470 470 511 513 513 496 496 451 451 412 388 388 363 363 379 413 413 391 391 365 365 403 410 410 384 384 363 363 364 353 353 321 321 308 308 334 373 373 381 381 344 344 319 304 304 303 310 339 339 346 300 300 281 281 270 270 269 279 279 288 288 271 271 271 276 276 259 259 256 259 259 255 255 251 251 241 235 235 234 234 245 245 254 255 255 241 241 229 229 224 218 218 209 209 209 209 206 202 202 204 204 216 216 206 200 200 196 196 198 198 198 194 194 185 185 177 177 174 169 169 167 167 170 169 169 164 164 160 160 159 157 157 159 159 160 160 32767
32767 32767 327 331 331 354 354 386 386 394 402 402 413 413 433 461 461 489 489 515 515 531 512 512 471 471 487 487 476 426 483 471 471 445 445 423 395 395 388 388 390 390 388 391 391 412 412 399 399 378 392 392 421 421 474 474 528 498 498 459 459 470 470 511 513 513 496 496 451 412 412 388 388 363 363 379 413 413 391 391 365 365 403 410 410 384 384 363 363 364 353 353 321 321 308 308 334 373 373 381 381 344 344 319 304 304 303 303 292 292 287 290 290 273 273 252 252 244 254 254 278 278 286 262 262 255 255 254 254 252 241 241 238 238 236 236 234 230 230 227 227 234 234 235 231 231 228 228 224 224 223 217 217 208 208 203 203 203 201 201 203 203 224 224 218 198 200 196 196 198 198 198 194 194 185 185 177 174 174 169 169 167 167 170 169 169 164 164 160 160 159 157 157 159 159 160 160 32767
32767 32767 327 331 331 354 354 386 386 394 402 402 413 413 433 461 461 489 489 515 515 531 512 512 471 471 487 487 476 426 426 425 425 412 412 392 375 375 377 377 375 375 376 402 402 401 401 388 388 375 373 373 395 395 439 439 445 434 434 401 401 414 414 457 461 461 425 425 410 401 401 397 397 375 375 356 351 351 354 354 397 397 434 421 421 400 400 396 396 364 353 353 321 321 308 308 334 373 373 381 381 344 344 319 304 304 303 303 292 292 287 290 290 273 273 252 252 244 254 254 278 278 286 262 262 255 255 254 254 252 241 241 238 238 236 236 234 230 230 227 227 234 234 235 231 231 228 228 224 224 223 217 217 208 208 203 203 203 201 201 203 203 224 224 218 198 198 188 188 184 184 186 183 183 180 180 177 171 171 168 168 168 168 167 165 165 160 160 155 155 152 151 151 154 154 154 154 32767
32767 32767 342 365 365 381 381 382 389 389 399 399 413 413 433 461 461 489 489 515 515 531 512 512 471 471 487 487 476 426 426 425 425 412 412 392 375 375 377 377 375 375 376 402 402 401 401 388 388 375 373 373 395 395 439 439 445 434 434 401 401 414 457 457 461 461 425 425 410 401 401 397 397 375 375 356 351 351 354 354 397 397 434 421 421 400 400 396 396 379 350 350 311 311 313 313 354 385 385 383 383 358 358 351 359 359 367 367 342 342 322 282 282 243 243 233 244 244 259 259 283 283 291 271 271 253 253 243 243 249 239 239 229 229 225 225 225 229 229 220 220 224 224 222 217 217 213 228 224 224 223 217 217 208 208 203 203 203 201 201 203 203 224 224 218 198 198 188 188 184 186 186 183 183 180 180 177 171 171 168 168 168 168 167 165 165 160 160 155 155 152 151 151 154 154 154 154 32767
32767 32767 342 365 365 381 381 382 389 389 399 399 412 412 426 446 446 479 479 490 490 460 451 451 432 432 427 427 418 396 396 394 394 387 387 374 369 369 364 364 363 363 378 409 409 405 405 422 422 404 375 375 361 361 368 368 380 375 375 382 382 406 431 431 399 399 379 379 363 356 401 397 397 375 375 356 351 351 354 354 397 397 434 421 421 400 400 396 396 379 350 350 311 311 313 313 354 385 385 383 383 358 358 351 359 359 367 367 342 342 322 282 282 243 243 233 244 244 259 259 283 283 291 271 271 253 253 243 243 249 239 239 229 229 225 225 225 229 229 220 220 224 224 222 217 217 213 213 211 211 221 223 223 205 205 199 199 196 198 198 208 208 210 210 198 190 190 188 188 181 177 177 173 173 172 172 170 167 167 163 163 162 162 161 162 162 162 162 152 152 149 149 149 149 149 150 150 32767
32767 342 342 365 365 381 381 382 389 389 399 399 412 412 426 446 446 479 479 490 490 460 451 451 432 432 427 427 418 396 396 394 394 387 387 374 369 369 364 364 363 363 378 409 409 405 405 422 422 404 375 375 361 361 368 380 380 375 375 382 382 406 431 431 399 399 379 379 363 356 356 365 365 379 379 357 335 335 389 389 438 438 419 392 392 347 347 365 365 334 306 306 291 291 313 313 361 389 389 394 394 387 387 393 400 400 372 372 323 280 280 248 248 226 226 231 246 246 263 263 266 266 260 250 250 243 243 235 235 249 239 239 229 229 225 225 225 229 229 220 220 224 224 222 217 217 213 213 211 211 221 223 223 205 205 199 199 196 198 198 208 208 210 198 198 190 190 188 188 181 177 177 173 173 172 172 170 167 167 163 163 162 162 161 162 162 162 162 152 152 149 149 149 149 149 150 150 32767
32767 372 372 375 375 375 375 376 386 386 404 404 440 440 466 454 454 485 485 458 458 417 408 408 399 399 389 389 374 368 368 376 376 373 373 363 363 363 351 351 371 371 411 436 436 440 440 438 438 407 390 390 361 361 368 380 380 375 375 382 382 406 431 431 399 399 379 379 363 356 356 365 365 379 379 357 335 335 389 389 438 438 419 392 392 347 347 365 365 334 306 306 291 291 313 313 361 389 389 394 394 387 387 393 400 400 372 372 323 280 280 248 248 226 226 231 246 246 263 263 266 266 260 250 250 243 243 235 235 241 231 231 223 223 219 219 216 223 223 217 217 214 214 213 210 210 206 206 206 206 207 212 212 200 200 192 192 191 201 201 207 207 210 188 188 178 178 174 174 175 172 172 171 171 171 171 168 166 166 161 161 158 158 156 158 158 160 160 152 152 149 149 149 149 149 150 150 32767
32767 372 372 375 375 375 375 376 386 386 404 404 440 440 466 454 454 485 485 458 458 417 408 408 399 399 389 389 374 368 368 376 376 373 373 363 363 363 351 351 371 371 411 436 436 440 440 438 407 407 390 390 378 378 362 342 342 350 350 356 356 364 371 371 352 352 341 341 344 344 344 339 339 341 341 325 333 333 391 391 418 418 393 351 351 315 315 299 299 287 277 277 307 307 334 334 358 370 370 358 358 387 380 380 332 332 297 297 266 245 245 248 248 226 226 231 246 246 263 263 266 266 260 250 250 243 243 235 235 241 231 231 223 223 219 219 216 223 223 217 217 214 214 213 210 210 206 206 206 206 207 212 212 200 200 192 191 191 201 201 207 207 210 188 188 178 178 174 174 175 172 172 171 171 171 171 168 166 166 161 161 158 158 156 158 158 160 160 160 160 151 148 148 147 147 149 149 32767
32767 367 367 365 365 368 368 377 391 391 419 419 470 470 485 455 455 423 423 404 404 386 381 381 377 377 365 365 365 351 351 361 361 370 373 363 363 363 351 351 371 371 411 436 436 440 440 438 407 407 390 390 378 378 362 342 342 350 350 356 356 364 371 371 352 352 341 341 344 344 344 339 339 341 341 325 333 333 391 391 418 418 393 351 351 315 315 299 299 287 277 277 307 307 334 334 358 370 370 358 358 387 380 380 332 332 297 297 266 245 245 233 233 222 222 224 231 231 237 237 235 235 233 230 230 229 229 226 226 232 231 231 224 224 215 215 210 212 212 213 213 208 208 208 206 206 203 203 202 202 205 199 199 191 191 188 196 196 200 200 214 214 200 182 182 174 174 168 168 166 172 172 171 171 171 171 168 166 166 161 161 158 158 156 158 158 160 160 160 160 151 148 148 147 147 149 149 32767
32767 367 367 365 365 368 368 377 391 391 419 419 470 470 485 455 455 423 423 404 404 386 381 381 377 377 365 365 365 351 351 361 361 370 370 365 345 345 350 350 373 397 397 441 441 485 485 471 472 472 450 450 427 427 400 356 356 333 333 326 326 327 318 318 322 322 324 324 354 367 367 347 347 316 316 302 329 329 377 377 401 401 389 347 347 295 295 268 268 257 280 280 308 307 334 358 358 370 370 358 358 387 380 380 332 332 297 297 266 245 245 233 233 222 222 224 231 231 237 237 235 235 233 230 230 229 229 226 226 232 231 231 224 224 215 215 210 212 212 213 213 208 208 208 206 206 203 203 202 205 205 199 199 191 191 188 196 196 200 200 214 214 200 182 182 174 174 168 168 166 165 165 165 165 167 167 167 165 165 163 163 156 156 153 158 158 158 158 156 156 160 155 155 151 151 147 147 32767
32767 359 359 368 368 385 385 392 405 405 444 444 469 469 433 402 455 423 423 404 404 386 381 381 377 377 365 365 365 351 351 361 361 370 365 365 345 345 350 350 373 397 397 441 441 485 485 471 472 472 450 450 427 427 400 356 356 333 333 326 326 327 318 318 322 322 324 324 354 367 367 347 347 316 316 302 329 329 377 377 401 401 389 347 347 295 295 268 268 257 280 280 308 308 329 363 363 331 331 330 330 377 358 358 291 291 257 257 243 232 232 219 219 215 215 222 216 216 212 212 215 215 217 218 218 218 218 217 217 221 224 224 216 216 209 209 205 203 203 203 203 204 204 207 207 207 202 202 196 197 197 199 199 191 191 188 196 196 200 200 214 214 200 182 182 174 174 168 168 166 165 165 165 165 167 167 167 165 165 163 163 156 156 153 158 158 158 158 156 156 160 155 155 151 151 147 147 32767
32767 359 359 368 368 385 385 392 405 405 444 444 469 469 433 402 402 377 377 361 361 358 361 361 362 362 355 355 356 344 344 335 335 334 342 342 330 330 340 340 360 390 390 433 433 490 490 524 472 472 431 431 416 416 390 365 365 352 352 341 341 321 304 304 305 305 327 327 343 339 339 330 330 297 316 302 329 329 377 377 401 401 389 347 347 295 295 268 257 257 280 280 308 308 329 363 363 331 331 330 330 377 358 358 291 291 257 257 243 232 232 219 219 215 215 222 216 216 212 212 215 215 217 218 218 218 218 217 217 221 224 224 216 216 209 209 205 203 203 203 203 204 207 207 207 207 202 202 196 197 197 195 195 185 185 188 192 192 196 196 205 205 198 182 182 174 174 167 167 161 162 162 161 161 162 162 163 164 164 167 167 162 162 159 156 156 155 155 152 152 172 185 185 159 159 150 150 32767
32767 359 359 368 368 385 385 392 405 405 444 444 469 469 433 402 402 377 377 361 361 358 361 361 362 362 355 356 356 344 344 335 335 334 342 342 330 330 340 340 360 390 390 433 433 490 490 524 472 472 431 431 416 416 390 365 365 352 352 341 341 321 304 304 305 305 327 327 343 339 339 330 330 297 297 296 335 335 373 373 388 353 353 312 312 267 267 246 261 261 282 282 292 292 322 334 334 300 300 313 313 339 309 309 271 271 246 246 231 222 222 212 212 212 212 210 201 201 201 201 203 203 206 207 207 209 209 210 210 212 218 218 215 216 209 209 205 203 203 203 203 204 207 207 207 207 202 202 196 197 197 195 195 185 185 188 192 192 196 196 205 205 198 182 182 174 174 167 167 161 162 162 161 161 162 162 163 164 164 167 167 162 162 159 156 156 155 155 152 152 172 185 185 159 159 150 32767 32767
32767 386 386 420 420 437 437 422 437 437 444 444 417 417 388 371 371 360 360 347 347 346 351 351 351 351 348 340 340 340 340 321 321 316 323 323 325 325 343 343 360 402 402 442 442 436 436 454 439 439 437 437 394 394 371 357 365 352 352 341 341 321 304 304 305 305 327 327 343 339 339 330 330 297 297 296 335 335 373 373 388 353 353 312 312 267 267 246 261 261 282 282 292 292 322 334 334 300 300 313 313 339 309 309 271 271 246 246 231 222 222 212 212 212 212 210 201 201 201 201 203 203 206 207 207 209 209 210 210 212 218 218 215 215 209 199 199 197 197 197 197 199 203 203 204 204 201 201 198 192 192 185 185 183 183 185 187 187 189 189 187 187 184 178 178 171 171 166 166 162 160 160 157 157 157 157 159 161 161 162 162 165 165 168 166 166 156 156 149 156 156 168 185 159 159 150 32767 32767
32767 386 386 420 420 437 437 422 437 437 444 444 417 417 388 371 371 360 360 347 346 346 351 351 351 351 348 340 340 340 340 321 321 316 323 323 325 325 343 343 360 402 402 442 442 436 436 454 439 439 437 437 394 394 371 357 357 355 355 344 344 327 314 314 301 301 324 324 361 364 364 353 353 302 293 293 355 355 356 356 319 294 294 258 258 244 244 238 249 249 260 260 272 272 277 279 279 273 273 285 285 285 262 262 254 254 239 239 220 214 214 209 209 204 204 210 201 201 201 201 203 203 206 207 207 209 209 210 210 212 218 218 215 215 209 199 199 197 197 197 197 199 203 203 204 204 201 201 198 192 192 185 185 183 183 185 187 187 189 189 187 187 184 178 178 171 171 166 166 162 160 160 157 157 157 157 159 161 161 162 162 165 165 168 166 166 156 156 149 156 156 168 168 155 155 148 32767 32767
32767 383 383 408 408 410 410 387 395 395 419 419 394 361 361 353 353 347 347 339 337 337 339 339 336 336 331 330 330 324 324 305 305 307 328 328 357 357 343 343 360 402 402 442 442 436 436 454 439 439 437 437 394 394 371 357 357 355 355 344 344 327 314 314 301 301 324 324 361 364 364 353 353 302 293 293 355 355 356 356 319 294 294 258 258 244 244 238 249 249 260 260 272 272 277 279 279 273 273 285 285 285 262 262 254 254 239 239 220 214 214 209 209 204 204 203 194 194 194 194 197 197 199 199 199 201 201 204 209 209 210 210 207 207 202 194 194 192 192 192 192 193 194 194 199 199 199 199 195 189 189 181 181 175 175 179 184 184 192 192 181 181 176 172 172 169 169 168 168 165 161 161 158 157 157 157 159 161 161 162 162 165 168 168 166 166 156 156 149 156 156 168 168 155 155 148 32767 32767
32767 383 383 408 408 410 410 387 395 395 419 419 394 361 361 353 353 347 347 339 337 337 339 339 336 336 331 330 330 324 324 305 305 307 328 328 357 357 383 383 382 390 390 408 408 370 370 361 360 360 387 387 378 378 372 340 340 337 337 350 350 340 334 334 328 328 301 347 347 344 344 331 331 313 274 274 295 295 297 297 261 243 243 232 232 226 226 230 236 236 236 236 242 242 247 251 279 273 273 285 285 285 262 262 254 254 239 239 220 214 214 209 209 204 204 203 194 194 194 194 197 197 199 199 199 201 201 204 209 209 210 210 207 207 202 194 194 192 192 192 192 193 194 194 199 199 199 199 195 189 189 181 181 175 175 179 184 184 192 192 181 181 176 172 172 169 169 168 168 165 161 161 158 158 156 156 154 155 155 156 156 153 167 167 170 170 161 161 148 147 147 155 155 156 156 150 32767 32767
32767 393 393 395 395 388 374 374 375 375 371 371 354 343 343 340 340 335 335 339 337 337 339 339 336 336 331 330 330 324 324 305 305 307 328 328 357 357 383 383 382 390 390 408 408 370 370 361 360 360 387 387 378 378 372 340 340 337 337 350 350 340 334 334 328 328 301 347 347 344 344 331 331 313 274 274 295 295 297 297 261 243 243 232 232 226 226 230 236 236 236 236 242 242 247 251 251 252 252 259 259 245 233 233 232 232 224 224 209 201 201 199 199 199 199 200 195 195 189 189 191 192 192 193 193 194 194 196 197 197 201 201 202 202 195 191 191 191 191 186 186 188 192 192 195 195 194 194 189 185 185 181 181 180 180 179 184 184 192 192 181 181 176 172 172 169 169 168 168 165 161 161 158 158 156 154 154 155 155 156 156 153 167 167 170 170 161 161 148 147 147 155 155 156 156 150 32767 32767
32767 393 393 395 395 388 374 374 375 375 371 371 354 343 343 340 340 335 335 332 328 328 326 326 321 321 309 316 316 325 325 299 299 319 348 348 380 380 370 370 338 327 327 330 330 324 324 310 316 316 320 320 325 325 340 313 313 301 301 323 308 308 309 309 316 316 280 293 293 294 294 297 297 294 278 278 261 261 297 297 261 243 243 232 232 226 226 230 236 236 236 236 242 242 247 251 251 252 252 259 259 245 233 233 232 232 224 224 209 201 201 199 199 199 199 200 195 195 189 189 191 192 192 193 193 194 194 196 197 197 201 201 202 202 195 191 191 191 191 186 186 188 192 192 195 195 194 194 189 185 185 181 181 180 180 173 173 173 186 186 177 177 171 167 167 165 165 162 162 161 159 159 155 155 155 153 153 151 151 151 151 152 156 156 161 161 164 164 151 145 145 151 151 156 156 152 32767 32767
32767 393 393 395 395 388 374 374 375 375 371 371 354 343 343 340 340 335 335 332 328 328 326 326 321 321 309 316 316 325 325 299 299 319 348 348 380 380 370 370 338 327 327 330 330 324 324 310 316 316 320 320 325 325 340 313 313 301 301 323 308 308 309 309 316 316 280 293 293 294 294 297 297 294 278 278 261 261 252 252 248 250 250 248 248 221 221 220 223 223 224 224 225 225 227 231 231 231 231 231 231 229 219 219 213 213 210 210 204 191 191 191 191 196 194 194 193 193 188 188 185 186 186 186 186 187 187 189 192 192 195 195 196 196 190 187 187 191 191 186 186 188 192 192 195 195 194 194 189 185 185 181 181 180 180 173 173 173 186 186 177 177 171 167 167 165 165 162 161 161 159 159 155 155 155 153 153 151 151 151 151 152 156 156 161 161 164 164 151 145 145 151 151 156 156 152 32767 32767
32767 385 385 380 380 374 364 364 354 354 346 346 340 332 332 330 330 329 329 328 323 323 324 324 318 318 304 301 301 298 298 287 287 287 316 316 353 353 362 362 353 322 322 303 303 289 289 286 290 290 289 289 289 294 294 291 291 281 281 280 308 308 309 309 316 316 280 293 293 294 294 297 297 294 278 278 261 261 252 252 248 250 250 248 248 221 221 220 223 223 224 224 225 225 227 231 231 231 231 231 231 229 219 219 213 213 210 204 204 191 191 191 191 196 194 194 193 193 188 188 185 186 186 186 186 187 187 189 192 192 195 195 196 196 190 187 187 187 187 181 181 182 184 184 188 188 197 197 192 185 185 182 182 178 178 165 167 167 177 177 174 174 169 165 165 164 164 160 157 157 156 156 153 153 151 150 150 150 150 147 147 149 151 151 151 151 149 149 145 142 142 141 141 149 149 157 32767 32767
32767 385 385 380 380 374 364 364 354 354 346 346 340 332 332 330 330 329 329 328 323 323 324 324 318 318 304 301 301 298 298 287 287 287 316 316 353 353 362 362 353 322 322 303 303 289 286 286 290 290 289 289 289 294 294 291 291 281 281 280 268 268 277 277 264 264 262 265 265 292 292 280 280 265 251 251 270 270 277 277 280 266 266 244 244 221 221 211 213 213 212 212 212 212 213 216 216 215 215 213 213 211 208 208 202 202 201 196 196 189 189 186 186 191 189 189 189 189 189 188 185 186 186 186 186 187 187 189 192 192 195 195 196 196 190 187 187 187 187 181 181 182 184 184 188 188 197 197 192 185 185 182 182 178 178 165 167 167 177 177 174 169 169 165 165 164 164 160 157 157 156 156 153 153 151 150 150 150 150 147 147 149 151 151 151 151 149 149 145 142 142 141 141 149 149 157 32767 32767
32767 362 362 356 356 359 351 351 341 341 337 337 333 326 326 323 323 331 331 339 334 334 336 336 338 338 336 315 315 305 305 312 312 299 278 278 278 278 292 292 330 334 322 303 303 289 286 286 290 290 289 289 289 294 294 291 291 281 281 280 268 268 277 277 264 264 262 265 265 292 292 280 280 265 251 251 270 270 277 277 280 266 266 244 244 221 221 211 213 213 212 212 212 212 213 216 216 215 215 213 211 211 208 208 202 202 201 196 196 189 189 186 186 191 189 189 189 189 189 189 182 179 179 179 179 181 181 184 187 187 188 188 187 187 183 176 176 178 178 175 175 177 177 177 184 184 189 189 191 184 184 181 181 181 181 177 172 172 165 165 164 161 161 163 163 162 162 159 157 157 155 155 154 154 154 148 148 150 150 147 147 149 151 151 151 151 149 149 145 142 142 141 141 149 149 157 32767 32767
32767 362 362 356 356 359 351 351 341 341 337 337 333 326 326 323 323 331 331 339 334 334 336 336 338 338 336 315 315 305 305 312 312 299 278 278 278 278 292 330 330 334 334 305 305 279 266 266 265 265 273 273 269 263 263 263 263 276 276 241 241 241 264 264 264 264 272 269 269 267 267 264 264 267 239 239 268 268 271 271 259 237 237 222 222 210 210 204 205 205 203 203 203 203 200 202 202 202 202 200 211 211 208 208 202 202 201 196 196 189 189 186 186 191 189 189 189 189 189 189 182 179 179 179 179 181 181 184 187 187 188 188 187 187 183 176 176 178 178 175 175 177 177 177 184 184 189 189 191 184 184 181 181 181 177 177 172 172 165 165 164 161 161 163 163 162 162 159 157 157 155 155 154 154 154 148 148 146 146 146 146 149 152 152 150 150 147 147 146 143 143 139 139 137 137 143 32767 32767
32767 344 344 342 342 340 336 336 331 331 327 327 324 320 320 318 318 327 327 342 341 341 338 336 338 338 336 315 315 305 305 312 312 299 278 278 278 278 292 330 330 334 334 305 305 279 266 266 265 265 273 273 269 263 263 263 263 276 276 241 241 241 264 264 264 264 272 269 269 267 267 264 264 267 239 239 268 268 271 271 259 237 237 222 222 210 210 204 205 205 203 203 203 200 200 202 202 202 202 200 198 198 194 194 193 193 191 189 189 182 182 183 183 188 185 185 184 184 182 182 180 174 174 174 174 176 176 178 180 180 181 181 181 181 179 174 174 173 173 172 172 172 171 171 175 175 180 180 188 188 188 178 178 176 175 175 175 175 171 165 164 161 161 163 163 162 162 159 157 157 155 155 154 154 154 148 148 146 146 146 146 149 152 152 150 150 147 147 146 143 143 139 139 137 137 143 32767 32767
32767 344 344 342 342 340 336 336 331 331 327 327 324 320 320 318 318 327 327 342 341 341 338 338 354 354 353 333 333 326 326 336 329 329 323 323 296 296 272 260 260 296 296 293 293 284 265 265 256 256 260 260 253 248 248 253 253 266 266 251 231 231 243 243 237 237 242 253 253 238 238 229 229 247 229 229 230 230 237 237 223 213 237 222 222 210 210 204 205 205 203 203 203 200 200 202 202 202 202 200 198 198 194 194 193 193 191 189 189 182 182 183 183 188 185 185 184 184 182 182 180 174 174 174 174 176 176 178 180 180 181 181 181 181 179 174 174 173 173 172 172 172 171 171 175 175 180 188 188 188 188 178 178 176 175 175 175 175 171 171 165 163 163 155 155 154 154 158 156 156 154 154 152 152 150 150 150 147 147 147 147 146 147 147 151 151 156 156 164 163 163 150 150 139 139 132 32767 32767
32767 334 334 335 335 340 336 336 331 331 327 327 324 320 320 318 318 327 327 342 341 341 338 338 354 353 353 333 333 326 326 336 329 329 323 323 296 296 272 260 260 296 296 293 293 284 265 265 256 256 260 260 253 248 248 253 253 266 266 251 231 231 243 243 237 237 242 253 253 238 238 229 229 247 229 229 230 230 237 237 223 213 213 208 208 202 196 196 198 198 198 198 202 198 198 189 189 190 190 188 187 187 183 183 180 180 181 180 180 175 175 181 181 184 180 180 179 179 177 177 175 173 173 170 170 169 169 172 173 173 173 173 174 174 177 177 177 172 172 170 170 172 171 171 175 175 180 188 188 188 188 178 178 176 175 175 175 175 171 171 165 163 163 155 155 154 154 158 156 156 154 154 152 152 150 150 150 147 147 147 147 146 147 147 151 151 156 156 164 163 163 150 150 139 139 132 32767 32767
32767 334 334 335 335 328 324 324 323 323 318 318 317 313 313 316 316 325 325 339 344 344 346 346 351 361 361 366 366 335 335 313 303 303 318 318 328 328 315 274 274 252 252 237 237 242 257 257 245 245 247 247 239 230 230 237 237 245 245 242 223 223 213 213 237 237 242 253 253 238 238 229 229 247 229 229 230 230 237 223 223 213 213 208 208 202 196 196 198 198 198 198 202 198 198 189 189 190 190 188 187 187 183 183 180 180 181 180 180 175 175 181 181 184 180 180 179 179 177 177 175 173 173 170 170 169 169 172 173 173 173 173 174 174 177 177 177 172 172 170 167 167 165 165 167 167 170 184 184 188 188 179 179 174 173 173 172 172 168 168 166 166 166 165 165 161 161 152 150 150 151 151 150 150 148 147 147 146 146 146 146 143 142 142 145 145 151 151 160 170 170 161 161 149 149 138 32767 32767
32767 334 334 335 335 328 324 324 323 323 318 318 317 313 313 316 316 325 339 339 344 344 346 346 351 361 361 366 366 335 335 313 303 303 318 318 328 328 315 274 274 252 252 237 237 242 257 257 245 245 247 247 239 230 230 237 237 245 245 242 223 223 213 213 214 214 214 221 221 219 219 210 210 212 208 208 209 209 209 209 209 201 201 196 196 193 191 191 194 194 193 193 192 192 192 186 186 180 180 181 179 179 175 175 171 171 171 168 168 170 170 175 175 175 174 174 172 172 171 171 170 171 171 170 170 169 169 172 173 173 173 173 174 174 177 177 177 172 172 170 167 167 165 165 167 167 170 184 184 188 188 179 179 174 173 173 172 172 168 168 166 166 166 165 165 161 161 152 150 150 151 151 150 150 148 147 147 146 146 146 146 143 142 142 145 145 151 151 160 170 170 161 161 149 138 138 32767 32767
32767 320 320 319 319 318 312 312 313 313 310 310 310 310 310 317 317 328 342 342 349 349 356 356 366 365 365 351 351 318 318 304 290 290 276 276 277 277 269 271 271 261 261 240 240 234 257 257 245 245 247 247 239 230 230 237 237 245 245 242 223 223 213 213 214 214 214 221 221 219 219 210 212 212 208 208 209 209 209 209 209 201 201 196 196 193 191 191 194 194 193 193 192 192 192 186 186 180 180 181 179 179 175 175 171 171 171 168 168 170 170 175 175 175 174 174 172 172 171 171 170 171 171 166 166 164 164 164 165 165 168 168 168 175 175 173 173 170 170 166 162 162 162 162 161 161 165 175 175 179 179 175 175 171 169 169 167 167 167 167 165 165 165 164 164 163 163 156 150 150 145 145 145 145 150 146 146 142 142 141 141 143 142 142 145 145 151 151 160 170 170 161 161 149 138 138 32767 32767
32767 320 320 319 319 318 312 312 313 313 310 310 310 310 310 317 317 328 342 342 349 349 356 356 366 365 365 351 351 318 318 304 290 290 276 276 277 277 269 271 271 261 261 240 240 234 249 249 241 241 231 231 227 228 228 220 220 225 225 223 216 216 209 209 202 202 199 194 194 200 200 197 195 195 192 192 192 192 195 198 198 191 191 185 185 180 185 185 186 186 186 186 184 184 184 182 182 176 176 172 172 172 171 171 171 171 171 168 168 170 170 175 175 175 174 174 172 172 171 171 170 171 171 166 166 164 164 164 165 165 168 168 168 175 175 173 173 170 170 166 162 162 162 162 161 161 165 175 175 179 179 175 175 171 169 169 167 167 167 167 165 165 165 164 164 163 163 156 150 150 145 145 145 145 150 146 146 142 142 141 141 141 140 140 141 141 148 162 162 171 171 165 165 159 149 149 32767 32767
32767 314 314 307 305 305 304 304 304 304 304 304 304 311 311 320 320 329 338 338 345 345 347 347 367 370 370 351 351 318 318 304 290 290 276 276 277 277 269 271 271 261 261 240 240 234 249 249 241 241 231 231 227 228 228 220 220 225 225 223 216 216 209 209 202 199 199 194 194 200 200 197 195 195 192 192 192 192 195 198 198 191 191 185 185 180 185 185 186 186 186 186 184 184 184 182 182 176 176 172 172 172 171 171 167 167 166 162 162 167 167 169 169 168 169 169 168 168 168 168 166 166 166 164 164 162 158 158 157 157 159 159 162 161 161 163 163 160 160 157 155 155 157 157 158 158 160 164 164 169 169 169 169 168 165 165 164 164 163 163 162 162 162 164 164 163 163 156 150 150 145 145 145 145 150 146 146 142 142 141 141 141 140 140 141 141 148 162 162 171 171 165 165 159 149 149 32767 32767
32767 314 314 307 305 305 304 304 304 304 304 304 304 311 311 320 320 329 338 338 345 345 347 347 367 370 370 328 328 309 309 299 280 280 280 280 284 284 272 254 254 240 240 249 249 243 225 225 224 224 231 231 216 214 214 209 209 204 211 211 210 210 206 206 202 198 198 189 189 187 187 189 187 187 184 184 180 180 185 187 187 184 184 177 177 177 185 185 186 186 186 186 184 184 184 182 182 176 176 172 172 172 171 171 167 167 166 162 162 167 167 169 169 168 169 169 168 168 168 166 166 166 166 164 164 162 158 158 157 157 159 159 162 161 161 163 163 160 160 157 155 155 157 157 158 158 160 164 164 169 169 169 169 168 165 165 164 164 163 163 162 162 162 161 161 162 162 165 164 164 156 156 150 150 146 141 141 135 135 137 137 137 137 137 136 136 142 162 162 164 164 158 158 156 144 144 32767 32767
32767 305 305 301 296 296 296 296 296 304 304 304 304 311 311 320 320 329 338 338 345 345 347 347 367 370 370 328 328 309 309 299 280 280 280 280 284 284 272 254 254 240 240 249 249 243 225 225 224 224 231 231 216 214 214 209 209 204 211 211 210 210 206 206 202 198 198 189 189 187 187 189 187 187 184 184 180 180 185 187 187 184 184 177 177 177 177 177 179 179 178 178 177 176 176 170 170 165 165 162 163 163 166 166 163 163 160 159 159 164 164 164 164 164 167 167 164 164 163 162 162 160 160 157 157 160 157 157 153 153 152 152 154 155 155 153 153 152 152 151 150 150 153 153 156 158 160 164 164 169 169 169 169 168 165 165 164 164 163 163 162 162 162 161 161 162 162 165 164 164 156 156 150 146 146 141 141 135 135 137 137 137 137 137 136 136 142 162 162 164 164 158 158 156 144 144 32767 32767
32767 305 305 301 296 296 296 296 296 296 297 303 303 312 312 325 325 342 366 366 372 372 358 358 355 353 353 344 344 315 315 303 313 313 331 331 316 316 302 279 279 250 250 233 233 231 237 237 225 225 206 212 212 209 209 199 199 195 206 206 218 218 204 204 197 193 193 192 189 187 187 189 187 187 184 184 180 180 185 187 187 184 184 177 177 177 177 177 179 179 178 178 177 176 176 170 170 165 165 162 163 163 166 166 163 163 160 159 159 164 164 164 164 164 167 167 164 164 163 162 162 160 160 157 157 160 157 157 153 153 152 152 154 155 155 153 153 152 152 151 150 150 153 153 156 156 166 165 165 165 165 162 162 162 162 162 160 160 161 161 159 159 159 157 157 158 158 161 158 158 152 152 148 142 142 142 142 133 133 132 133 133 133 133 134 134 135 139 139 150 150 152 152 143 131 131 32767 32767
32767 305 305 301 296 296 296 296 296 296 297 303 303 312 312 325 325 342 366 366 372 372 358 358 355 353 353 344 344 315 315 303 313 313 331 331 316 316 302 279 279 250 250 233 233 231 237 237 225 225 206 212 212 209 209 199 199 195 206 206 218 218 204 204 197 193 193 192 192 183 183 187 181 181 177 177 172 172 176 176 176 174 174 169 169 172 169 169 171 171 173 173 172 170 170 164 164 159 159 156 156 156 157 157 157 157 153 156 156 158 158 159 159 159 160 160 156 156 153 155 155 155 155 151 151 150 157 157 153 153 152 152 154 155 155 153 153 152 152 151 150 150 153 153 156 156 166 165 165 165 165 162 162 162 162 162 160 160 161 161 159 159 159 157 157 158 161 161 158 158 152 152 148 142 142 142 142 133 133 132 133 133 133 133 134 134 135 139 139 150 150 152 152 143 131 131 32767 32767
32767 293 293 292 290 290 294 294 297 297 299 307 307 317 317 326 326 339 361 361 380 380 365 365 340 327 327 310 310 306 306 310 312 312 317 317 277 277 274 250 250 234 234 230 223 223 219 219 223 225 206 212 212 209 209 199 199 195 206 206 218 218 204 204 197 193 193 192 192 183 183 187 181 181 177 177 172 172 176 176 176 174 174 169 169 172 169 169 171 171 173 173 172 170 170 164 164 159 159 156 156 156 157 157 157 153 153 156 156 158 158 159 159 159 160 160 156 156 153 155 155 155 155 151 151 150 150 150 149 149 146 146 147 148 148 148 148 145 145 144 147 147 150 150 154 154 164 171 171 166 166 160 160 159 159 159 159 159 157 157 155 154 154 154 154 152 153 153 151 151 145 145 142 141 141 139 139 136 136 131 126 126 130 130 132 134 135 139 139 150 150 152 152 143 131 131 32767 32767
32767 293 293 292 290 290 294 294 297 297 299 307 307 317 317 326 326 339 361 361 380 380 365 365 340 327 327 310 310 306 306 310 312 312 317 317 277 274 274 250 250 234 234 230 223 223 219 219 223 223 206 195 195 193 193 193 193 192 198 198 216 216 204 204 197 191 191 182 182 180 180 176 178 178 171 171 166 166 168 168 168 165 165 163 163 164 164 164 165 165 167 167 166 164 164 160 160 156 154 154 151 151 150 150 148 150 150 152 156 158 158 159 159 159 160 160 156 156 153 155 155 155 155 151 151 150 150 150 149 149 146 146 147 148 148 148 148 145 145 144 147 147 150 150 154 154 164 171 171 166 166 160 160 159 159 159 159 159 157 155 155 154 154 154 154 152 153 153 151 151 145 145 142 141 141 139 139 136 136 131 126 126 130 130 132 132 132 133 133 152 152 153 153 147 131 131 32767 32767
32767 286 286 286 288 288 293 293 298 298 302 308 308 316 316 325 325 334 347 347 369 369 382 382 382 368 368 329 329 298 298 310 312 312 317 317 277 274 274 250 250 234 234 230 223 223 219 219 223 223 206 195 195 193 193 193 193 192 198 198 216 216 204 204 197 191 191 182 182 180 180 176 178 178 171 171 166 166 168 168 168 165 165 163 163 164 164 164 165 165 167 167 166 164 164 160 160 156 154 154 151 151 150 150 148 150 150 152 152 153 153 158 156 156 153 153 151 151 148 151 151 150 150 147 147 144 147 147 148 148 148 148 142 143 143 142 142 139 139 141 145 145 144 144 148 148 160 165 165 161 161 157 157 156 159 159 158 158 155 152 152 154 154 151 151 151 153 153 151 151 145 145 142 141 141 139 139 136 136 131 126 126 130 130 132 132 132 133 133 152 152 153 153 147 131 131 32767 32767
32767 286 286 286 288 288 293 293 298 298 302 308 308 316 316 325 325 334 347 347 369 369 382 382 382 368 368 329 329 298 283 283 271 271 273 273 259 241 241 236 236 229 229 218 212 212 203 203 209 209 210 194 194 188 188 184 184 184 199 199 200 200 197 197 201 192 192 183 183 177 177 167 170 170 167 167 163 163 160 159 159 157 157 156 156 156 158 158 160 160 167 166 166 164 164 160 160 156 154 154 151 151 150 150 148 150 150 152 152 153 153 158 156 156 153 153 151 151 148 151 151 150 150 147 147 144 147 147 148 148 148 148 142 143 143 142 142 139 139 141 145 145 144 144 148 148 160 165 165 161 161 157 156 156 159 159 158 158 155 152 152 154 154 151 151 151 153 153 148 148 142 142 138 137 137 135 135 134 134 131 126 126 125 125 129 129 129 128 128 138 138 151 151 143 126 126 32767 32767
32767 279 279 280 284 284 289 289 294 294 300 305 305 316 316 325 325 334 347 347 369 369 382 382 382 368 368 329 329 298 283 283 271 271 273 273 259 241 241 236 236 229 229 218 212 212 203 203 209 209 210 194 194 188 188 184 184 184 199 199 200 200 197 197 201 192 192 183 183 177 177 167 170 170 167 167 163 163 160 159 159 157 157 156 156 156 158 158 160 160 160 157 157 157 157 156 156 153 149 149 146 146 145 145 144 146 146 147 147 148 148 152 155 155 152 152 147 147 145 145 145 144 144 142 142 142 142 142 140 140 140 140 138 135 135 136 136 140 140 139 141 141 142 142 142 142 146 155 155 161 161 157 156 156 159 159 158 158 155 152 152 154 154 151 151 151 153 153 148 148 142 142 138 137 137 135 135 134 134 131 126 126 125 125 129 129 129 128 128 138 138 151 151 143 126 126 32767 32767
32767 279 279 280 284 284 289 289 294 294 300 305 305 312 312 321 321 333 335 335 347 347 348 354 354 341 341 353 353 354 332 332 303 303 276 276 259 252 252 245 245 234 234 224 216 216 204 204 194 194 201 196 196 185 185 180 180 180 195 195 196 196 186 186 205 216 216 208 208 195 195 169 170 170 167 167 163 163 160 159 159 157 157 156 156 156 158 158 160 160 160 157 157 157 157 156 156 153 149 149 146 146 145 145 144 146 146 147 147 148 148 152 155 155 152 152 147 147 145 145 145 144 144 142 142 142 142 142 140 140 140 140 138 135 135 136 136 140 140 139 141 141 142 142 142 146 146 155 155 156 156 151 152 152 150 150 152 152 152 150 150 151 151 149 149 149 151 151 148 148 144 144 139 135 135 132 132 130 130 131 129 129 124 124 123 123 125 124 124 130 130 141 141 133 120 120 32767 32767
32767 279 279 280 284 284 289 289 294 294 300 305 305 312 312 321 333 333 335 335 347 347 348 354 354 341 341 353 353 354 332 332 303 303 276 276 259 252 252 245 245 234 234 224 216 216 204 204 194 194 201 196 196 185 185 180 180 180 195 195 196 196 186 186 205 216 216 208 208 195 195 169 162 162 162 162 160 156 156 152 152 152 152 151 151 151 154 154 153 153 153 153 153 152 152 151 151 149 146 146 142 142 139 139 139 142 142 142 142 142 142 144 146 146 142 142 142 142 139 138 138 134 134 134 134 134 133 133 135 135 140 140 138 135 135 136 136 140 139 139 141 141 142 142 142 146 146 155 155 156 156 151 152 152 150 150 152 152 152 150 150 151 151 149 149 149 151 151 148 148 144 144 139 135 135 132 132 130 130 131 129 129 124 124 123 123 125 124 124 130 130 141 141 133 120 120 32767 32767
32767 277 277 279 283 283 288 288 293 293 301 312 312 323 323 334 347 347 342 342 323 323 313 317 317 326 326 347 347 364 349 349 309 309 294 294 286 271 271 255 255 242 242 231 213 213 200 200 191 191 187 186 186 185 185 180 180 180 195 195 196 196 186 186 205 216 216 208 208 195 195 169 162 162 162 162 160 156 156 152 152 152 152 151 151 151 154 154 153 153 153 153 153 152 152 151 151 149 146 146 142 142 139 139 139 142 142 142 142 142 142 144 146 146 142 142 142 142 139 138 138 134 134 134 134 134 133 133 135 135 134 134 130 128 128 133 133 134 134 134 136 136 139 139 144 145 145 154 154 152 152 147 146 146 146 146 147 147 148 145 145 145 145 148 148 149 147 147 144 144 143 143 138 134 134 130 130 127 127 128 128 128 125 125 121 121 119 124 124 130 130 141 141 133 120 120 32767 32767
32767 277 277 279 283 283 288 288 293 301 301 312 312 323 323 334 347 347 342 342 323 323 313 317 317 326 326 347 347 364 349 349 309 309 294 294 286 271 271 255 255 242 242 231 213 213 200 200 191 191 187 186 186 183 183 175 175 179 197 197 204 204 181 181 203 204 204 191 191 183 169 169 163 163 157 157 153 153 153 150 150 146 146 145 145 145 146 146 146 146 148 147 147 144 144 144 144 146 141 141 137 137 136 136 136 138 138 137 137 138 138 140 146 146 142 142 142 142 139 138 138 134 134 134 134 134 133 133 135 135 134 130 130 128 128 133 133 134 134 134 136 136 139 139 144 145 145 154 154 152 152 147 146 146 146 146 147 147 148 145 145 145 145 148 148 149 147 147 144 144 143 143 138 134 134 130 130 127 127 128 128 128 125 125 121 121 119 124 124 135 135 140 125 125 113 113 32767 32767
32767 274 277 277 283 283 289 289 297 312 312 322 322 326 326 326 323 323 328 328 320 320 299 307 307 335 335 350 350 360 357 357 330 330 308 294 286 271 271 255 255 242 242 231 213 213 200 200 191 191 187 186 186 183 183 175 175 179 197 197 204 204 181 181 203 204 204 191 191 183 169 169 163 163 157 157 153 153 153 150 150 146 146 145 145 145 146 146 146 146 148 147 147 144 144 144 144 146 141 141 137 137 136 136 136 138 138 137 137 138 138 140 141 141 135 135 134 134 134 129 129 129 129 132 132 133 133 133 131 131 130 125 125 127 127 130 130 131 134 134 143 143 144 144 148 144 144 149 149 147 147 145 143 143 145 145 145 145 145 142 142 143 143 151 151 156 153 153 143 143 136 143 138 134 134 130 130 127 127 128 128 128 125 125 121 121 119 124 124 135 135 140 125 125 113 113 32767 32767
32767 274 277 277 283 283 289 289 297 312 312 322 322 326 326 326 323 323 328 328 320 320 299 307 307 335 335 350 350 360 357 357 330 330 308 308 300 272 272 252 252 247 247 245 231 231 205 205 192 192 184 178 178 174 174 169 169 178 199 199 182 182 164 157 157 155 155 153 153 158 161 161 153 153 150 150 146 147 147 147 147 142 142 139 141 141 140 140 140 140 142 141 141 139 144 144 144 146 141 141 137 137 136 136 136 138 138 137 137 138 138 140 141 141 135 135 134 134 134 129 129 129 129 132 133 133 133 133 131 131 130 125 125 127 127 130 130 131 134 134 143 143 144 144 148 144 144 149 149 147 147 145 143 143 145 145 145 145 145 142 142 143 143 151 151 156 153 153 143 143 136 136 133 130 130 130 130 129 129 128 126 126 124 124 122 118 118 123 123 134 134 127 118 118 111 111 32767 32767
32767 271 274 274 280 280 291 291 305 322 322 332 332 335 335 327 306 323 328 328 320 320 299 307 307 335 335 350 350 360 357 357 330 330 308 308 300 272 272 252 252 247 247 245 231 231 205 205 192 192 184 178 178 174 174 169 178 178 199 199 182 182 164 157 157 155 155 153 153 158 161 161 153 153 150 150 146 147 147 147 147 142 142 139 141 141 140 140 140 140 142 141 141 139 139 138 138 139 137 137 133 133 130 130 131 132 132 134 134 135 135 135 136 136 130 130 129 130 130 127 127 125 125 129 134 134 137 137 129 129 123 121 121 124 124 124 124 126 131 131 134 134 135 135 142 144 144 147 147 145 145 141 141 143 145 145 145 145 145 142 142 143 143 151 151 156 153 153 143 143 136 136 133 130 130 130 130 129 129 128 126 126 124 124 122 118 118 123 123 134 134 127 118 118 111 111 32767 32767
32767 271 274 274 280 280 291 291 305 322 322 332 332 335 335 327 306 306 298 298 301 301 291 300 300 313 313 321 321 341 357 357 342 342 307 307 289 288 288 271 271 256 256 249 233 233 211 211 196 196 187 182 182 176 176 167 171 171 177 177 187 187 176 173 173 166 166 153 153 146 144 144 142 142 140 150 146 147 147 147 147 142 142 139 141 141 140 140 140 140 142 141 141 139 139 138 138 139 137 137 133 133 130 130 131 132 132 134 134 135 135 135 136 136 130 130 129 130 130 127 127 125 125 129 134 134 137 137 129 129 123 121 121 124 124 124 124 126 131 131 134 134 135 135 142 144 144 147 147 145 145 141 141 141 138 138 138 138 137 138 138 147 147 152 152 157 163 163 154 154 146 146 141 135 135 132 132 129 129 129 125 125 124 124 131 133 133 123 123 115 115 114 111 111 110 110 32767 32767
32767 271 274 274 280 280 291 291 305 322 322 332 332 335 335 327 306 306 298 298 301 301 291 300 300 313 313 321 321 341 357 357 342 342 307 307 289 288 288 271 271 256 256 249 233 233 211 211 196 187 187 182 182 176 176 167 171 171 177 177 187 187 176 173 173 166 166 153 153 146 144 144 142 142 140 140 139 139 139 142 142 140 140 135 132 132 133 133 133 133 135 134 134 132 132 131 131 130 131 131 132 132 126 126 126 126 126 129 129 130 129 129 127 127 124 124 123 125 125 124 124 119 119 123 123 123 124 124 121 121 117 119 119 121 124 124 124 126 131 131 134 134 135 135 142 144 144 147 147 145 145 141 141 141 138 138 138 138 137 138 138 147 147 152 152 157 163 163 154 154 146 146 141 135 135 132 132 129 129 129 125 125 124 124 131 133 133 123 123 115 115 114 111 111 110 110 32767 32767
32767 269 270 270 277 277 287 287 302 323 323 327 327 310 310 323 316 316 293 293 280 280 281 292 292 295 295 323 323 324 316 316 332 332 338 338 300 278 278 280 280 261 232 232 220 220 207 207 198 195 195 182 182 171 171 171 184 171 177 177 187 187 176 173 173 166 166 153 153 146 144 144 142 142 140 140 139 139 139 142 142 140 140 135 132 132 133 133 133 133 135 134 134 132 132 131 131 130 131 131 132 132 126 126 126 126 126 129 129 130 129 129 127 127 124 124 123 125 125 124 124 119 119 123 123 123 124 124 121 121 117 119 119 121 121 123 123 127 128 128 129 129 129 129 134 135 135 141 141 141 141 138 135 135 133 133 132 132 135 143 143 153 153 159 159 165 172 172 165 165 149 140 140 135 135 131 131 128 128 128 128 128 132 132 141 141 141 138 138 116 116 109 108 111 110 110 32767 32767
32767 269 270 270 277 277 287 287 302 323 323 327 327 310 310 323 316 316 293 293 280 280 281 292 292 295 295 323 323 324 316 316 332 332 338 338 300 278 278 280 280 261 232 232 220 220 207 207 198 195 195 182 182 171 171 171 184 184 211 211 206 206 188 180 180 170 170 159 159 149 143 143 137 137 137 137 137 132 132 137 137 135 135 140 133 133 127 127 129 129 130 131 131 128 128 127 127 127 128 128 130 130 122 121 121 124 124 124 124 126 126 126 122 122 118 118 123 125 125 124 124 119 119 123 123 123 124 124 121 121 117 119 119 121 121 123 123 127 128 128 129 129 129 129 134 135 135 141 141 141 141 138 135 135 133 133 132 132 135 143 143 153 153 159 165 165 172 172 165 165 149 140 140 135 135 131 131 128 128 128 128 128 132 132 141 141 141 138 138 116 116 109 108 108 110 110 32767 32767
32767 265 267 267 273 273 281 281 294 312 312 337 337 312 312 293 296 296 288 288 275 275 275 281 281 279 279 296 296 297 300 300 331 331 319 314 314 285 285 280 280 261 232 232 220 220 207 207 198 195 195 182 182 171 171 171 184 184 211 211 206 206 188 180 180 170 170 159 159 149 143 143 137 137 137 137 137 132 132 137 137 135 135 140 133 133 127 127 129 129 130 131 131 128 128 127 127 127 128 128 130 130 122 121 121 124 124 124 124 126 126 126 122 122 118 118 118 121 121 116 116 116 116 126 121 121 116 116 116 116 117 117 117 117 117 120 120 131 136 136 133 133 131 131 130 131 131 135 135 136 136 136 133 133 132 132 132 132 136 141 141 144 144 150 155 155 160 160 157 157 149 141 141 134 134 131 131 128 128 128 128 128 132 132 141 141 141 138 138 116 116 109 108 108 110 110 32767 32767
32767 265 267 267 273 273 281 281 294 312 312 337 337 312 312 293 296 296 288 288 275 275 275 281 281 279 279 296 297 297 300 300 331 331 319 314 314 285 285 257 257 237 229 229 233 233 216 216 201 187 187 181 181 197 197 197 203 203 223 223 211 211 203 203 203 183 183 180 180 166 159 159 154 154 144 144 136 131 131 129 129 130 130 131 133 133 127 127 125 125 123 123 123 123 123 120 121 121 128 128 130 130 122 121 121 124 124 124 124 126 126 126 122 122 118 118 118 121 121 116 116 116 116 126 121 121 116 116 116 116 117 117 117 117 117 120 120 131 136 136 133 133 131 131 130 131 131 135 135 136 136 136 133 133 132 132 132 136 136 141 141 144 144 150 155 155 160 160 157 157 149 141 141 134 134 131 131 128 126 126 126 126 128 128 125 119 119 115 115 114 114 109 109 109 129 129 32767 32767
32767 262 264 264 268 268 272 272 280 288 288 298 298 304 304 292 282 282 278 278 269 275 275 281 281 279 279 296 297 297 300 300 331 331 319 314 314 285 285 257 257 237 229 229 233 233 216 216 201 187 187 181 181 197 197 197 203 203 223 223 211 211 203 203 203 183 183 180 180 166 159 159 154 154 144 144 136 131 131 129 129 130 130 131 133 133 127 127 125 123 123 123 123 123 123 120 121 121 123 123 125 125 122 116 116 118 118 118 118 120 122 122 120 120 112 112 114 116 116 115 115 114 114 119 114 114 112 112 113 113 114 113 113 114 114 118 118 122 129 129 130 130 133 133 131 130 130 132 132 132 132 131 132 132 131 131 132 136 136 141 141 144 144 150 155 155 160 160 157 157 149 141 141 134 134 131 131 128 126 126 126 126 128 128 125 119 119 115 115 114 114 109 109 109 129 129 32767 32767
32767 262 264 264 268 268 272 272 280 288 288 298 298 304 304 292 282 282 278 278 269 264 264 269 269 261 261 277 288 288 282 282 302 302 296 291 291 278 278 252 252 244 232 232 211 211 200 200 190 184 184 203 203 215 215 197 214 214 227 227 216 216 218 208 208 201 201 188 188 178 202 202 192 192 155 155 141 132 132 129 129 130 130 131 133 133 127 127 125 123 123 123 123 123 123 120 121 121 123 123 125 125 122 116 116 118 118 118 118 120 122 122 120 120 112 112 114 116 116 115 115 114 114 119 114 114 112 112 113 113 114 113 113 114 114 118 118 122 129 129 130 130 133 133 131 130 130 132 132 132 131 131 132 132 131 131 132 134 134 138 138 140 140 144 148 148 152 152 150 150 146 141 141 136 136 133 133 133 131 131 137 137 146 146 152 135 135 119 119 109 109 106 117 117 114 114 32767 32767
32767 261 264 264 268 268 272 272 280 288 288 298 298 304 292 292 282 282 278 278 269 264 264 269 269 261 261 277 288 288 282 282 302 302 296 291 291 278 278 252 252 244 232 232 211 211 200 200 190 184 184 203 203 215 215 197 214 214 227 227 216 216 218 208 208 201 201 188 188 178 202 202 192 192 155 155 141 132 132 125 125 126 124 124 122 122 122 122 120 118 118 117 117 115 115 115 113 113 116 116 116 116 114 112 112 113 113 113 113 114 113 113 114 114 108 108 110 115 115 114 114 110 110 108 106 106 107 107 109 109 110 112 112 117 117 125 125 130 129 129 130 130 133 131 131 130 130 132 132 132 131 131 132 132 131 131 132 134 134 138 138 140 140 144 148 148 152 152 150 150 146 141 141 136 136 133 133 133 131 131 137 137 146 146 152 135 135 119 119 109 109 106 117 117 114 114 32767 32767
32767 261 263 263 266 266 270 270 271 274 274 277 277 280 279 279 280 280 288 288 286 285 285 276 276 257 257 269 277 277 268 268 283 283 269 273 273 274 274 271 271 247 241 241 215 215 193 193 187 203 203 218 218 219 219 214 217 217 238 238 241 216 218 208 208 201 201 188 188 178 202 202 192 192 155 141 141 132 132 125 125 126 124 124 122 122 122 122 120 118 118 117 117 115 115 115 113 113 116 116 116 116 114 112 112 113 113 113 113 114 113 113 114 114 108 108 110 115 115 114 114 110 110 108 106 106 107 107 109 109 110 112 112 117 117 125 125 130 135 135 139 139 136 129 129 128 128 129 129 130 126 126 126 126 130 130 127 129 129 130 130 131 131 136 141 141 144 144 148 148 150 147 147 143 143 139 139 138 141 141 148 148 154 154 163 167 167 143 143 117 117 104 109 109 116 116 32767 32767
32767 261 263 263 266 266 270 271 271 274 274 277 277 280 279 279 280 280 288 288 286 285 285 276 276 257 257 269 277 277 268 268 283 283 269 273 273 274 274 271 271 247 241 241 215 215 193 193 187 203 203 218 218 219 219 214 217 217 238 238 241 241 237 231 231 209 209 211 211 194 205 205 189 189 168 149 149 138 138 127 127 119 120 120 119 119 118 118 115 114 114 113 113 112 112 112 112 112 110 110 111 111 110 108 108 111 111 111 111 112 112 112 106 106 103 103 107 108 108 105 114 110 110 108 106 106 107 107 109 109 110 112 112 117 117 125 130 130 135 135 139 139 136 129 129 128 128 129 129 130 126 126 126 126 130 130 127 129 129 130 130 131 131 136 141 141 144 144 148 148 150 147 147 143 143 139 139 138 141 141 148 148 154 154 163 167 167 143 143 117 117 104 109 109 116 116 32767 32767
265 265 268 268 272 272 275 279 279 280 280 280 280 274 267 267 265 265 271 271 279 293 293 281 281 256 256 249 253 253 264 264 272 272 272 254 254 244 244 271 271 247 220 241 215 215 193 193 187 203 203 218 218 219 219 214 217 217 238 238 241 241 237 231 231 209 209 211 194 194 205 205 189 189 168 149 149 138 138 127 127 119 120 120 119 119 118 118 115 114 114 113 113 112 112 112 112 112 110 110 111 111 110 108 108 111 111 111 111 112 112 112 106 106 103 103 107 108 108 105 105 104 104 103 103 103 105 105 108 108 109 113 113 117 117 121 132 132 134 134 131 131 126 122 122 124 124 123 123 124 121 121 123 123 124 124 123 125 125 127 127 129 129 132 135 135 138 138 143 143 149 158 158 154 154 148 148 148 155 141 148 148 154 154 163 167 167 143 143 117 117 104 109 109 116 116 32767 32767
265 265 268 268 272 272 275 279 279 280 280 280 280 274 267 267 265 265 271 271 279 293 293 281 281 256 256 249 253 253 264 264 272 272 272 254 254 244 244 271 271 247 220 220 204 204 190 190 204 227 227 237 237 228 228 230 230 230 261 261 274 277 277 241 241 227 227 233 209 209 214 214 224 224 188 162 162 144 144 134 134 126 120 120 118 118 113 113 112 109 109 107 107 106 106 105 105 105 104 104 102 102 110 108 108 111 111 111 111 112 112 112 106 106 103 103 107 108 108 105 105 104 104 103 103 103 105 105 108 109 109 113 113 117 117 121 132 132 134 134 131 131 126 122 122 124 124 123 123 124 121 121 123 123 124 124 123 125 125 127 127 129 129 132 135 135 138 138 143 143 149 158 158 154 154 148 148 148 155 155 163 163 165 165 172 178 178 172 172 145 145 110 106 106 124 124 32767 32767
269 269 273 273 278 278 286 292 292 301 301 306 306 297 290 290 270 270 259 259 269 281 281 265 281 256 256 249 253 253 264 264 272 272 272 254 254 244 244 271 271 247 220 220 204 204 190 190 204 227 227 237 237 228 228 230 230 230 261 261 274 277 277 241 241 227 227 233 209 209 214 214 224 224 188 162 162 144 144 134 134 126 120 120 118 118 113 113 112 109 109 107 107 106 106 105 105 105 104 104 102 102 103 105 105 107 107 106 106 105 106 106 105 105 101 101 102 100 100 98 98 97 96 96 102 102 112 112 112 115 115 114 114 118 118 125 128 128 126 126 123 123 117 116 116 116 116 118 118 116 114 114 116 116 120 120 121 121 121 126 127 129 129 132 135 135 138 138 143 143 149 158 158 154 154 148 148 148 155 155 163 163 165 165 172 178 178 172 172 145 110 110 106 106 124 124 32767 32767
269 269 273 273 278 278 286 292 292 301 301 306 306 297 290 290 270 270 259 259 269 281 281 265 265 260 260 246 238 238 246 246 250 250 270 272 272 245 245 234 234 231 226 226 214 214 205 205 209 242 242 246 246 241 244 244 245 245 262 262 288 291 291 245 245 247 247 241 236 236 228 228 233 233 208 174 174 152 152 140 140 132 125 120 118 118 113 113 112 109 109 107 107 106 106 105 105 105 104 104 102 102 103 105 105 107 107 106 106 105 106 106 105 105 101 101 102 100 100 98 98 97 96 96 102 102 112 112 112 115 115 114 114 118 118 125 128 128 126 126 123 123 117 116 116 116 116 118 118 116 114 114 116 116 120 120 121 121 121 126 126 132 132 136 135 135 137 137 142 142 149 158 158 158 158 156 156 157 164 164 177 177 181 186 186 190 190 158 158 149 155 155 129 129 120 120 32767 32767
274 274 284 284 293 293 286 292 292 301 301 306 306 297 290 290 270 270 259 259 269 281 281 265 265 260 260 246 238 238 246 246 250 250 270 272 272 245 245 234 234 231 226 226 214 214 205 209 209 242 242 246 246 241 244 244 245 245 262 262 288 291 291 245 245 247 247 241 236 236 228 228 233 233 208 174 174 152 152 140 140 132 125 125 118 118 113 113 112 108 108 106 106 101 101 100 99 99 100 100 100 100 99 103 103 104 104 102 102 100 101 101 101 101 97 97 97 95 95 92 92 95 103 103 108 108 109 109 110 108 108 110 110 114 114 115 118 118 117 117 116 116 117 116 116 116 116 118 118 116 114 114 116 116 120 120 121 121 121 126 126 132 132 136 135 135 137 137 142 142 149 158 158 158 158 156 156 157 164 164 177 177 181 186 186 190 190 158 158 149 155 155 129 129 120 120 32767 32767
274 274 284 284 293 293 301 322 322 329 329 341 341 324 301 301 281 281 263 263 257 268 268 252 252 248 248 250 231 231 236 236 231 231 228 240 240 237 237 217 217 223 216 216 215 215 241 221 221 236 236 256 256 274 273 273 260 260 295 295 306 284 284 262 262 247 247 241 236 236 228 228 233 233 208 174 174 152 152 140 140 132 125 125 118 118 113 113 112 108 108 106 106 101 101 100 99 99 100 100 100 100 99 103 103 104 104 102 100 100 101 101 101 101 97 97 97 95 95 92 92 95 103 103 108 108 109 109 110 108 108 110 110 114 114 115 118 118 117 117 116 116 114 113 113 113 113 114 114 112 111 111 117 117 124 124 130 131 131 129 129 131 131 135 141 141 148 148 153 153 157 160 160 172 172 168 174 174 177 177 176 176 193 202 202 198 198 154 154 172 216 216 201 201 144 144 32767 32767
274 274 284 284 293 293 301 322 322 329 329 341 341 324 301 301 281 281 263 263 257 268 268 252 252 248 248 250 231 231 236 236 231 231 228 240 240 237 237 217 223 223 216 216 215 215 241 221 221 236 236 256 256 274 273 273 260 260 295 295 306 284 284 262 262 273 273 267 238 238 217 217 193 193 174 162 162 154 154 143 143 133 125 125 117 117 112 112 110 108 108 106 106 103 103 100 97 97 98 98 96 96 97 98 98 100 100 98 98 98 96 96 95 95 92 90 90 91 91 92 92 97 100 100 108 108 109 109 110 108 108 110 110 114 114 115 118 118 117 117 116 116 114 113 113 113 113 114 114 112 111 111 117 117 124 124 130 131 131 129 129 131 131 135 141 141 148 148 153 153 157 160 160 172 172 168 174 174 177 177 176 176 193 202 202 198 198 154 154 172 216 216 201 201 144 144 32767 32767
277 277 290 290 298 298 306 315 315 313 313 329 329 326 320 320 285 285 259 259 248 241 241 239 239 239 239 237 228 228 226 226 226 236 236 224 224 224 224 230 241 241 239 239 243 243 235 221 221 236 236 256 256 274 273 273 260 260 295 295 306 284 284 262 262 273 273 267 238 238 217 217 193 193 174 162 162 154 154 143 143 133 125 125 117 117 112 112 110 108 108 106 106 103 103 100 97 97 98 98 96 97 97 98 98 100 100 98 98 98 96 96 95 95 92 90 90 91 91 92 92 97 100 100 99 99 98 98 100 100 100 100 100 101 101 104 104 104 106 106 108 108 109 110 110 110 110 111 111 112 111 111 114 114 121 121 131 135 135 135 135 135 135 136 140 140 147 147 161 172 172 163 163 161 161 178 184 184 185 185 189 189 198 202 202 198 198 154 154 172 216 216 201 201 144 144 32767 32767
277 277 290 290 298 298 306 315 315 313 313 329 329 326 320 320 285 285 259 259 248 241 241 239 239 239 239 237 228 228 226 226 226 236 236 224 224 224 224 230 241 241 239 239 243 243 235 259 259 282 282 298 298 308 287 287 277 277 300 300 321 297 297 283 283 245 245 222 206 206 195 195 177 177 162 150 150 144 144 136 136 126 119 119 114 114 110 110 108 105 105 104 104 102 100 100 97 97 94 94 92 90 90 91 91 100 100 98 98 98 96 96 95 95 92 90 90 91 91 92 92 97 100 100 99 99 98 98 100 100 100 100 100 101 101 104 104 104 106 106 108 108 109 110 110 110 110 111 111 112 111 111 114 114 121 121 131 135 135 135 135 135 136 136 140 140 147 147 161 172 172 163 163 161 161 178 184 184 185 185 189 189 198 196 196 173 173 154 154 177 227 227 214 214 163 163 32767 32767
277 277 282 282 286 286 289 291 291 298 298 307 307 297 293 293 277 277 260 260 249 245 245 244 244 252 247 247 228 228 226 226 226 236 236 224 224 224 224 230 241 241 239 239 243 243 235 259 259 282 282 298 298 308 287 287 277 277 300 300 321 297 297 283 283 245 245 222 206 206 195 195 177 177 162 150 150 144 144 136 136 126 119 119 114 114 110 110 108 105 105 104 104 102 100 100 97 97 94 94 92 90 90 91 91 92 92 94 94 94 95 95 93 93 90 89 89 88 88 88 88 90 89 89 89 89 91 91 92 94 94 95 95 96 96 97 99 99 102 102 104 104 107 107 107 107 107 108 108 106 110 110 114 114 122 122 130 131 131 129 129 131 136 136 140 140 147 147 161 172 172 163 163 161 161 178 184 184 185 185 189 189 198 196 196 173 173 154 154 177 227 227 214 214 163 163 32767 32767
277 277 282 282 286 286 289 291 291 298 298 307 307 297 293 293 277 277 260 249 249 245 245 244 244 252 247 247 239 239 245 245 248 253 253 263 263 255 255 267 279 279 257 257 244 244 263 293 293 318 318 330 330 313 296 296 315 315 316 316 334 317 317 274 274 237 237 222 190 190 179 179 174 174 161 149 149 140 140 132 132 127 120 120 115 115 112 108 108 105 105 104 104 102 100 100 97 97 94 94 92 90 90 91 91 92 92 94 94 94 95 95 93 93 90 89 89 88 88 88 88 90 89 89 89 89 91 91 92 94 94 95 95 96 96 97 99 99 102 102 104 104 107 107 107 107 107 108 108 106 110 110 114 114 122 130 130 131 131 129 129 131 136 136 142 142 152 152 167 182 182 188 188 180 180 188 193 193 190 190 190 190 190 182 182 182 182 187 187 213 225 225 235 235 196 196 32767 32767
277 277 281 281 276 276 274 280 280 284 298 307 297 297 293 293 277 277 260 249 249 245 245 244 244 252 247 247 239 239 245 245 248 253 253 263 263 255 255 267 279 279 257 257 244 244 263 293 293 318 318 330 330 313 296 296 315 315 316 316 334 317 317 274 274 237 237 222 190 190 179 179 174 174 161 149 149 140 140 132 127 127 120 120 115 115 112 109 109 106 106 101 101 100 97 97 95 95 92 92 89 87 87 86 86 88 88 89 92 92 93 93 90 90 88 88 88 85 85 85 85 86 84 84 85 85 87 87 89 88 88 89 89 91 91 95 98 98 99 99 100 100 101 103 103 106 107 108 106 106 110 110 114 114 122 130 130 131 131 129 129 131 136 136 142 142 152 152 167 182 182 188 188 180 180 188 193 193 190 190 190 190 190 182 182 182 182 187 187 213 225 225 235 235 196 196 32767 32767
277 277 281 281 276 276 274 280 280 284 284 285 286 286 279 279 268 268 258 248 248 253 253 250 250 257 253 253 248 248 251 251 254 259 259 281 281 279 279 309 296 296 267 267 271 271 270 278 278 311 311 326 326 307 320 320 351 351 365 365 367 323 323 264 264 223 223 202 190 190 179 179 174 174 161 149 149 140 140 132 127 127 120 120 115 115 112 109 109 106 106 101 101 100 97 97 95 95 92 92 89 87 87 86 86 88 88 89 92 92 93 93 90 90 88 88 88 85 85 85 85 86 84 84 85 85 87 87 89 88 88 89 89 91 91 95 98 98 99 99 100 100 101 103 103 106 106 103 105 105 110 110 115 115 125 132 132 128 128 125 125 129 140 140 157 157 156 156 165 174 174 168 168 172 172 183 189 189 194 194 200 200 210 211 211 215 215 211 211 216 219 219 231 231 210 210 32767 32767
