ncols        161
nrows        183
xllcorner    473230.104339
yllcorner    4609550.7115
cellsize     100.000000000000
NODATA_value -9999
32767 187 187 183 136 136 99 99 86 79 79 85 85 98 98 95 116 116 120 120 96 82 82 82 82 81 81 80 89 89 91 91 82 78 78 90 90 88 88 83 73 73 77 77 72 68 68 69 69 70 70 70 70 70 74 74 76 78 78 76 76 75 75 74 75 75 75 75 80 80 82 90 90 88 88 90 92 92 95 95 98 98 101 110 110 118 118 120 124 124 128 128 128 128 123 131 131 122 122 129 123 123 127 127 132 132 137 140 140 138 138 140 146 146 146 146 142 142 142 148 148 137 137 135 145 145 153 153 155 155 159 160 160 151 151 152 152 151 152 152 155 155 162 165 165 171 171 175 175 170 163 163 167 167 169 161 161 156 156 155 155
32767 187 187 183 136 136 99 99 86 79 79 85 85 98 98 95 116 116 120 120 96 82 82 82 82 81 81 80 89 89 91 91 82 78 78 90 90 88 88 83 73 73 77 77 72 68 68 69 69 70 70 70 70 70 74 74 76 78 78 76 76 75 75 74 75 75 75 75 80 80 82 90 90 91 91 89 89 89 95 95 96 96 100 104 104 110 110 114 115 115 119 119 118 118 118 122 122 115 115 116 122 122 132 132 141 141 137 141 141 134 134 129 136 136 135 135 130 130 135 136 136 129 129 136 138 138 138 138 134 134 134 135 135 134 134 138 138 139 142 142 157 157 163 171 171 174 174 175 175 171 172 172 172 172 164 163 163 165 165 170 170
32767 187 187 183 136 136 99 99 86 79 79 85 85 98 98 95 116 116 120 120 96 82 82 82 82 81 81 80 89 89 91 91 82 78 78 90 90 88 88 83 73 73 77 77 72 68 68 69 69 70 70 70 70 70 74 74 76 78 78 76 76 75 75 74 75 75 75 75 80 80 82 90 90 91 91 89 89 89 95 95 96 96 100 104 104 110 110 114 115 115 119 119 118 118 118 122 122 115 115 116 122 122 132 132 141 141 137 141 141 134 134 129 136 136 135 135 130 130 135 136 136 129 129 136 138 138 138 138 134 134 134 135 135 134 134 138 138 139 142 142 157 157 163 171 171 174 174 175 175 171 172 172 172 172 164 163 163 165 165 170 170
32767 181 154 154 131 131 128 128 111 96 96 77 77 80 80 107 117 117 105 105 88 80 80 77 77 76 76 78 85 85 78 78 74 76 76 81 81 78 78 77 73 73 73 73 69 69 69 75 75 76 76 72 71 71 73 73 74 75 75 73 73 74 74 80 80 80 80 80 79 85 85 88 88 85 85 85 89 89 92 92 94 94 95 98 98 101 101 105 106 106 110 110 110 110 117 116 116 107 107 113 126 126 137 137 141 141 133 134 134 131 131 123 125 125 127 127 128 128 122 118 118 120 120 120 121 121 127 127 134 134 141 146 146 152 152 154 154 146 145 145 166 166 191 195 195 192 192 192 192 181 178 178 179 179 174 176 176 176 176 186 186
32767 181 154 154 131 131 128 128 111 96 96 77 77 80 80 107 117 117 105 105 88 80 80 77 77 76 76 78 85 85 78 78 74 76 76 81 81 78 78 77 73 73 73 73 69 69 69 75 75 76 76 72 71 71 73 73 74 75 75 73 73 74 74 80 80 80 80 80 79 85 85 88 88 85 85 85 89 89 92 92 94 94 95 98 98 101 101 105 106 106 110 110 110 110 117 116 116 107 107 113 126 126 137 137 141 141 133 134 134 131 131 123 125 125 127 127 128 128 122 118 118 120 120 120 121 121 127 127 134 134 141 146 146 152 152 154 146 146 145 145 166 166 191 195 195 192 192 192 192 181 178 178 179 179 174 176 176 176 176 186 186
32767 145 136 136 129 129 128 128 127 106 106 79 79 75 75 84 85 85 76 76 76 76 76 74 74 74 74 74 73 73 72 72 72 75 75 69 69 69 69 68 68 68 70 70 71 71 71 71 71 74 74 75 78 78 78 78 72 75 75 76 76 73 73 77 79 79 79 79 80 81 81 80 80 85 85 86 90 90 94 94 96 96 96 95 95 97 97 100 98 98 105 105 112 112 113 109 109 106 106 118 127 127 131 131 129 129 125 123 123 122 122 116 117 117 117 117 113 113 116 117 117 124 124 128 136 136 152 152 159 159 177 180 180 200 200 180 164 164 154 154 170 170 198 231 231 224 224 198 198 185 195 195 196 196 190 201 201 193 193 196 196
32767 145 136 136 129 129 128 128 127 106 106 79 79 75 75 84 85 85 76 76 76 76 76 74 74 74 74 74 73 73 72 72 72 75 75 69 69 69 69 68 68 68 70 70 71 71 71 71 71 74 74 75 78 78 78 78 72 75 75 76 76 73 73 77 79 79 79 79 80 81 81 80 80 85 85 86 90 90 94 94 96 96 96 95 95 97 97 100 98 98 105 105 112 112 113 109 109 106 106 118 127 127 131 131 129 129 125 123 123 122 122 116 117 117 117 117 113 113 116 117 117 124 124 128 136 136 152 152 159 159 177 180 180 200 200 180 164 164 154 154 170 170 198 231 231 224 224 198 198 185 195 195 196 196 190 201 201 193 193 196 196
32767 128 111 111 92 92 89 89 83 72 72 72 72 75 75 75 74 74 81 81 75 72 72 77 77 88 88 80 77 77 73 73 73 70 70 69 69 69 69 73 72 72 71 71 72 71 71 70 70 70 70 72 70 70 72 72 73 77 77 79 79 78 78 81 75 75 75 75 74 73 73 77 77 82 82 87 89 89 89 89 90 90 89 92 92 94 94 91 93 93 99 99 106 106 105 101 101 108 106 118 127 127 131 131 129 129 125 123 123 122 122 116 117 117 117 117 113 113 116 117 117 124 124 128 136 136 152 152 159 159 177 180 180 200 200 180 164 164 154 154 170 170 198 231 231 224 224 198 198 185 195 195 196 196 190 201 201 193 193 196 196
32767 128 111 111 92 92 89 89 83 72 72 72 72 75 75 75 74 74 81 81 75 72 72 77 77 88 88 80 77 77 73 73 73 70 70 69 69 69 69 73 72 72 71 71 72 71 71 70 70 70 70 72 70 70 72 72 73 77 77 79 79 78 78 81 75 75 75 75 74 73 73 77 77 82 82 87 89 89 89 89 90 90 89 92 92 94 94 91 93 93 99 99 106 106 105 101 101 108 108 116 120 120 122 122 121 121 118 113 113 111 111 114 110 110 106 106 113 113 127 138 138 159 159 166 164 164 174 174 199 199 212 229 229 227 227 194 195 195 163 163 159 159 191 242 242 226 226 206 206 199 207 207 208 208 210 216 216 222 222 212 212
32767 128 111 111 92 92 89 89 83 72 72 72 72 75 75 75 74 74 81 81 75 72 72 77 77 88 88 80 77 77 73 73 73 70 70 69 69 69 69 73 72 72 71 71 72 71 71 70 70 70 70 72 70 70 72 72 73 77 77 79 79 78 78 81 75 75 75 75 74 73 73 77 77 82 82 87 89 89 89 89 90 90 89 92 92 94 94 91 93 93 99 99 106 106 105 101 101 108 108 116 120 120 122 122 121 121 118 113 113 111 111 114 110 110 106 106 113 113 127 138 138 159 159 166 164 164 174 174 199 199 212 229 229 227 227 194 195 195 163 163 159 159 191 242 242 226 226 206 206 199 207 207 208 208 210 216 216 222 222 212 212
32767 114 89 89 76 76 70 70 70 74 74 98 98 93 93 93 104 104 112 112 106 103 103 90 90 120 120 109 97 97 84 84 79 68 68 74 74 75 75 78 77 77 77 77 73 73 73 70 70 73 73 70 69 69 74 74 75 78 78 76 76 75 75 78 75 75 75 75 79 76 76 74 74 76 76 81 85 85 87 87 88 88 89 90 90 89 89 96 97 97 99 99 99 99 96 105 105 110 110 113 115 115 112 112 109 109 106 102 102 102 102 104 109 109 121 121 135 135 156 182 182 192 192 205 207 207 218 218 244 244 266 265 265 225 225 214 230 230 205 205 182 182 172 218 218 226 226 231 231 230 217 217 222 222 225 247 247 259 259 235 235
32767 114 89 89 76 76 70 70 70 74 74 98 98 93 93 93 104 104 112 112 106 103 103 90 90 120 120 109 97 97 84 84 79 68 68 74 74 75 75 78 77 77 77 77 73 73 73 70 70 73 73 70 69 69 74 74 75 78 78 76 76 75 75 78 75 75 75 75 79 76 76 74 74 76 76 81 85 85 87 87 88 88 89 90 90 89 89 96 97 97 99 99 99 99 96 105 105 110 110 113 115 115 112 112 109 109 106 102 102 102 102 104 109 109 121 121 135 135 156 182 182 192 192 205 207 207 218 218 244 244 266 265 265 225 225 214 230 230 205 205 182 182 172 218 218 226 226 231 231 230 217 217 222 222 225 247 247 259 259 235 235
32767 125 94 94 72 72 69 69 69 74 74 114 114 138 125 125 131 131 143 143 141 118 118 106 106 123 123 110 100 100 102 102 86 74 74 81 81 90 90 80 82 82 82 82 74 74 74 71 71 72 72 72 73 73 74 74 78 81 81 81 81 75 75 79 82 82 82 82 80 81 81 78 78 76 76 77 81 81 81 81 83 83 89 91 91 95 95 94 94 94 92 92 92 92 96 100 100 101 101 100 100 100 96 96 97 97 99 101 101 107 107 119 128 128 133 133 140 140 159 183 183 203 203 195 185 185 199 199 220 220 242 268 268 254 254 243 264 264 244 244 187 187 186 219 219 247 247 225 225 246 247 247 251 251 237 252 252 273 273 269 269
32767 125 94 94 72 72 69 69 69 74 74 114 114 138 125 125 131 131 143 143 141 118 118 106 106 123 123 110 100 100 102 102 86 74 74 81 81 90 90 80 82 82 82 82 74 74 74 71 71 72 72 72 73 73 74 74 78 81 81 81 81 75 75 79 82 82 82 82 80 81 81 78 78 76 76 77 81 81 81 81 83 89 89 91 91 95 95 94 94 94 92 92 92 92 96 100 100 101 101 100 100 100 96 96 97 97 99 101 101 107 107 119 128 128 133 133 140 140 159 183 183 203 203 195 185 185 199 199 220 220 242 268 268 254 254 243 264 264 244 244 187 187 186 219 219 247 247 225 225 246 247 247 251 251 237 252 252 273 273 269 269
32767 109 71 71 67 67 69 69 73 95 95 120 120 139 145 145 135 135 135 135 144 143 143 138 138 124 124 112 94 94 84 84 81 91 91 103 103 93 93 79 82 82 87 87 84 81 81 74 74 75 75 76 71 71 73 73 75 76 76 76 76 77 77 80 80 80 80 80 79 81 81 78 78 79 79 78 79 79 82 82 88 91 91 92 92 92 92 87 86 86 88 88 89 89 90 91 91 92 92 92 93 93 96 96 97 97 101 107 107 131 131 135 142 142 154 154 163 163 167 173 173 168 168 181 185 185 199 199 220 220 242 268 268 254 254 243 264 264 244 244 187 187 186 219 219 247 247 225 225 246 247 247 251 251 237 252 252 273 273 269 269
32767 109 71 71 67 67 69 69 73 95 95 120 120 139 145 145 135 135 135 135 144 143 143 138 138 124 124 112 94 94 84 84 81 91 91 103 103 93 93 79 82 82 87 87 84 81 81 74 74 75 75 76 71 71 73 73 75 76 76 76 76 77 77 80 80 80 80 80 79 81 81 78 78 79 79 78 79 79 82 82 88 91 91 92 92 92 92 87 86 86 88 88 89 89 90 91 91 92 92 92 93 93 96 96 97 97 101 107 107 131 131 135 142 142 154 154 163 163 167 173 173 168 168 181 187 187 195 195 205 205 233 250 250 239 239 233 235 235 206 206 187 187 201 208 208 235 235 247 247 229 240 240 268 268 276 284 284 284 284 283 283
32767 86 65 65 72 67 69 69 73 95 95 120 120 139 145 145 135 135 135 135 144 143 143 138 138 124 124 112 94 94 84 84 81 91 91 103 103 93 93 79 82 82 87 87 84 81 81 74 74 75 75 76 71 71 73 73 75 76 76 76 76 77 77 80 80 80 80 80 79 81 81 78 78 79 79 78 79 79 82 82 88 91 91 92 92 92 92 87 86 86 88 88 89 89 90 91 91 92 92 92 93 93 96 96 97 97 101 107 107 131 131 135 142 142 154 154 163 163 167 173 173 168 168 181 187 187 195 195 205 205 233 250 250 239 239 233 235 235 206 206 187 187 201 208 208 235 235 247 247 229 240 240 268 268 276 284 284 284 284 283 283
32767 86 65 65 72 72 92 92 95 92 92 99 99 123 136 136 127 127 121 121 126 125 125 134 134 136 136 115 103 103 106 106 99 96 96 98 98 87 87 85 94 94 100 100 98 88 88 78 78 73 73 80 80 80 79 79 77 80 80 79 79 79 79 81 83 83 83 83 81 81 81 82 82 83 83 80 81 81 80 80 83 85 85 86 86 85 85 85 88 88 87 87 87 87 88 88 88 92 92 94 96 96 98 98 99 99 108 117 117 122 122 126 150 150 158 158 167 167 179 197 197 204 204 209 217 217 228 228 218 218 226 251 251 242 242 255 226 226 196 196 189 189 212 221 221 203 203 209 209 232 236 236 249 249 269 270 270 281 281 302 302
32767 86 65 65 72 72 92 92 95 92 92 99 99 123 136 136 127 127 121 121 126 125 125 134 134 136 136 115 103 103 106 106 99 96 96 98 98 87 87 85 94 94 100 100 98 88 88 78 78 73 73 80 80 80 79 79 77 80 80 79 79 79 79 81 83 83 83 83 81 81 81 82 82 83 83 80 81 81 80 80 83 85 85 86 86 85 85 85 88 88 87 87 87 87 88 88 88 92 92 94 96 96 98 98 99 99 108 117 117 122 122 126 150 150 158 158 167 167 179 197 197 204 204 209 217 217 228 228 218 218 226 251 251 242 242 255 226 226 196 196 189 189 212 221 221 203 203 209 209 232 236 236 249 249 269 270 270 281 281 302 302
32767 70 73 73 97 97 138 138 144 131 131 136 136 147 144 144 135 135 121 121 110 118 118 138 138 156 146 146 136 136 124 124 112 108 108 105 105 93 93 88 98 98 100 100 106 98 98 81 81 73 73 79 88 88 83 83 81 81 81 83 83 82 82 81 83 83 83 83 79 78 78 77 77 79 79 81 81 81 82 82 82 84 84 85 85 84 84 84 85 85 87 87 87 87 86 89 89 92 92 97 99 99 104 104 108 108 113 132 132 147 147 138 129 129 143 143 150 150 155 163 163 169 169 175 193 193 206 206 222 222 236 246 246 262 262 239 211 211 211 211 214 214 226 240 240 220 220 210 220 220 251 251 250 250 255 264 264 277 277 291 291
32767 70 73 73 97 97 138 138 144 131 131 136 136 147 144 144 135 135 121 121 110 118 118 138 138 156 146 146 136 136 124 124 112 108 108 105 105 93 93 88 98 98 100 100 106 98 98 81 81 73 73 79 88 88 83 83 81 81 81 83 83 82 82 81 83 83 83 83 79 78 78 77 77 79 79 81 81 81 82 82 82 84 84 85 85 84 84 84 85 85 87 87 87 87 86 89 89 92 92 97 99 99 104 104 108 108 113 132 132 147 147 138 129 129 143 143 150 150 155 163 163 169 169 175 193 193 206 206 222 222 236 246 246 262 262 239 211 211 211 211 214 214 226 240 240 220 220 210 220 220 251 251 250 250 255 264 264 277 277 291 291
32767 72 95 95 127 127 158 158 175 184 184 166 166 148 135 135 124 124 110 110 103 115 115 130 130 138 143 143 137 137 119 119 108 102 102 96 96 93 93 90 96 96 98 98 99 88 88 79 79 75 75 78 81 81 84 84 88 89 89 86 86 85 85 81 85 85 85 85 87 82 82 79 79 79 79 79 80 80 80 80 82 85 85 85 85 85 85 86 90 90 87 87 87 87 90 96 96 92 92 99 102 102 110 110 116 116 123 126 126 137 137 146 139 139 139 139 149 149 180 177 177 161 161 181 186 186 188 188 196 196 216 234 234 255 255 244 235 235 264 264 239 239 279 262 262 266 266 238 230 220 251 251 250 250 255 264 264 277 277 291 291
32767 72 95 95 127 127 158 158 175 184 184 166 166 148 135 135 124 124 110 110 103 115 115 130 130 138 143 143 137 137 119 119 108 102 102 96 96 93 93 90 96 96 98 98 99 88 88 79 79 75 75 78 81 81 84 84 88 89 89 86 86 85 85 81 85 85 85 85 87 82 82 79 79 79 79 79 80 80 80 80 82 85 85 85 85 85 85 86 90 90 87 87 87 87 90 96 96 92 92 99 102 102 110 110 116 116 123 126 126 137 137 146 139 139 139 139 149 149 180 177 177 161 161 181 186 186 188 188 196 196 216 234 234 255 255 244 235 235 264 264 239 239 279 262 262 266 266 238 230 230 227 227 233 233 232 253 253 285 285 301 301
32767 90 107 107 110 110 127 127 152 164 164 163 163 139 116 116 101 101 96 96 112 105 105 108 108 117 123 123 138 138 119 119 108 102 102 96 96 93 93 90 96 96 98 98 99 88 88 79 79 75 75 78 81 81 84 84 88 89 89 86 86 85 85 81 85 85 85 85 87 82 82 79 79 79 79 79 80 80 80 80 82 85 85 85 85 85 85 86 90 90 87 87 87 87 90 96 96 92 92 99 102 102 110 110 116 116 123 126 126 137 137 146 139 139 139 139 149 149 180 177 177 161 161 181 186 186 188 188 196 196 216 234 234 255 255 244 235 235 264 264 239 239 279 262 262 266 266 238 230 230 227 227 233 233 232 253 253 285 285 301 301
32767 90 107 107 110 110 127 127 152 164 164 163 163 139 116 116 101 101 96 96 112 105 105 108 108 117 123 123 138 138 127 127 108 108 108 105 105 98 98 94 93 93 98 98 99 92 92 86 86 79 79 77 77 77 80 80 86 91 91 93 93 94 94 88 85 85 85 85 90 86 86 82 82 80 80 84 83 83 82 82 81 84 84 86 86 86 86 85 91 91 90 90 90 90 95 97 97 96 96 99 102 102 105 105 115 115 126 129 129 141 141 154 166 166 179 179 166 166 180 193 193 198 198 193 191 191 213 213 228 228 215 248 248 274 274 249 262 262 284 284 265 265 292 289 289 261 261 251 280 280 255 255 252 252 232 228 228 258 258 260 260
32767 90 107 107 110 110 127 127 152 164 164 163 163 139 116 116 101 101 96 96 112 105 105 108 108 117 123 123 138 138 127 127 108 108 108 105 105 98 98 94 93 93 98 98 99 92 92 86 86 79 79 77 77 77 80 80 86 91 91 93 93 94 94 88 85 85 85 85 90 86 86 82 82 80 80 84 83 83 82 82 81 84 84 86 86 86 86 85 91 91 90 90 90 95 95 97 97 96 96 99 102 102 105 105 115 115 126 129 129 141 141 154 166 166 179 179 166 166 180 193 193 198 198 193 191 191 213 213 228 228 215 248 248 274 274 249 262 262 284 284 265 265 292 289 289 261 261 251 280 280 255 255 252 252 232 228 228 258 258 260 260
32767 82 90 90 108 108 127 127 137 155 155 157 157 149 119 119 97 97 92 92 108 93 93 111 111 138 139 139 144 144 129 129 112 129 129 119 119 102 102 97 98 98 102 102 101 94 94 86 86 79 79 78 83 83 86 86 83 90 90 97 97 94 94 91 90 90 90 90 91 88 88 85 85 84 84 84 84 84 84 84 84 86 86 88 88 87 87 88 88 88 90 90 97 98 98 97 97 101 101 107 110 110 115 115 117 117 129 131 131 139 139 151 171 171 188 188 186 186 206 223 223 225 225 226 220 220 237 237 246 246 240 246 246 272 272 271 272 272 290 290 308 308 322 294 294 285 285 299 309 309 286 286 295 295 275 240 240 236 236 285 285
32767 82 90 90 108 108 127 127 137 155 155 157 157 149 119 119 97 97 92 92 108 93 93 111 111 138 139 139 144 144 129 129 112 129 129 119 119 102 97 97 98 98 102 102 101 94 94 86 86 79 79 78 83 83 86 86 83 90 90 97 97 94 94 91 90 90 90 90 91 88 88 85 85 84 84 84 84 84 84 84 84 86 86 88 88 87 87 88 88 88 90 90 97 98 98 97 97 101 101 107 110 110 115 115 117 117 129 131 131 139 139 151 171 171 188 188 186 186 206 223 223 225 225 226 220 220 237 237 246 246 240 246 246 272 272 271 272 272 290 290 308 308 322 294 294 285 285 299 309 309 286 286 295 295 275 240 240 236 236 285 285
32767 103 112 112 115 115 119 119 145 143 143 129 129 122 111 111 100 100 83 83 87 109 109 115 115 117 126 126 143 143 145 145 129 141 141 115 115 103 101 101 106 106 108 108 101 91 91 80 80 82 82 85 95 95 90 90 92 88 88 89 89 91 91 96 97 97 97 97 92 92 92 92 92 87 87 83 84 84 84 84 86 86 86 88 88 91 91 91 90 90 89 89 94 102 102 102 102 106 106 114 124 124 127 127 126 126 126 139 139 152 152 157 172 172 191 191 196 196 207 228 228 242 242 247 255 255 260 260 253 253 257 267 267 291 291 308 309 309 318 318 330 330 349 332 332 325 325 313 304 304 284 284 268 268 258 243 243 254 254 260 260
32767 103 112 112 115 115 119 119 145 143 143 129 129 122 111 111 100 100 83 83 87 109 109 115 115 117 126 126 143 143 145 145 129 141 141 115 115 103 101 101 106 106 108 108 101 91 91 80 80 82 82 85 95 95 90 90 92 88 88 89 89 91 91 96 97 97 97 97 92 92 92 92 92 87 87 83 84 84 84 84 86 86 86 88 88 91 91 91 90 90 89 89 94 102 102 102 102 106 106 114 124 124 127 127 126 126 126 139 139 152 152 157 172 172 191 191 196 196 207 228 228 242 242 247 255 255 260 260 253 253 257 267 267 291 291 308 309 309 318 318 330 330 349 332 332 325 325 313 304 304 284 284 268 268 258 243 243 254 254 260 260
32767 107 103 103 112 112 135 135 138 131 131 109 109 94 89 89 78 78 81 81 84 97 97 97 97 111 125 125 150 150 153 153 132 122 122 109 109 105 107 107 109 109 106 106 100 92 92 81 81 82 82 95 101 101 95 95 92 88 88 89 89 91 91 96 97 97 97 97 92 92 92 92 92 87 87 83 84 84 84 84 86 86 86 88 88 91 91 91 90 90 89 89 94 102 102 102 102 106 106 114 124 124 127 127 126 126 126 139 139 152 152 157 172 172 191 191 196 196 207 228 228 242 242 247 255 255 260 260 253 253 257 267 267 291 291 308 309 309 318 318 330 330 349 332 332 325 325 313 304 304 284 284 268 268 258 243 243 254 254 260 260
32767 107 103 103 112 112 135 135 138 131 131 109 109 94 89 89 78 78 81 81 84 97 97 97 97 111 125 125 150 150 153 153 132 122 122 109 109 105 107 107 109 109 106 106 100 92 92 81 81 82 82 95 101 101 95 95 101 95 95 91 91 92 92 99 102 102 102 102 99 100 100 96 96 91 91 85 85 85 86 86 92 94 94 93 93 93 93 93 94 94 91 91 92 98 98 105 105 112 112 113 114 114 121 121 137 137 131 132 132 144 144 151 163 163 179 179 191 191 208 211 211 218 218 234 234 234 206 206 209 209 230 250 250 256 256 276 281 281 320 320 352 352 342 312 312 297 297 279 270 270 279 279 298 298 285 261 261 284 284 276 276
32767 107 103 103 112 112 135 135 138 131 131 109 109 94 89 89 78 78 81 81 84 97 97 97 97 111 125 125 150 150 153 153 132 122 122 109 109 105 107 107 109 109 106 106 100 92 92 81 81 82 82 95 101 101 95 95 101 95 95 91 91 92 92 99 102 102 102 102 99 100 100 96 96 91 91 85 85 85 86 86 92 94 94 93 93 93 93 93 94 94 91 91 92 98 98 105 105 112 112 113 114 114 121 121 137 137 131 132 132 144 144 151 163 163 179 179 191 191 208 211 211 218 218 234 234 234 206 206 209 209 230 250 250 256 256 276 281 281 320 320 352 352 342 312 312 297 297 279 270 270 279 279 298 298 285 261 261 284 284 276 276
32767 82 97 97 118 118 147 147 121 107 107 104 104 85 69 69 83 83 103 103 98 97 97 104 104 122 150 150 169 169 148 148 125 122 122 129 129 116 123 123 141 141 124 124 106 93 93 84 84 84 84 94 100 100 98 98 103 100 100 97 97 95 95 102 107 107 107 107 109 102 102 97 97 94 94 90 91 91 87 87 91 94 94 96 96 94 94 94 98 98 97 97 96 102 102 102 102 104 104 111 119 119 116 116 122 122 125 144 144 155 155 158 176 176 186 186 188 188 193 186 186 172 172 178 183 183 194 194 238 238 250 249 249 255 255 245 275 275 320 320 345 345 330 336 336 308 308 308 308 308 302 302 316 316 301 291 291 294 294 296 296
32767 82 97 97 118 118 147 147 121 107 107 104 104 85 69 69 83 83 103 103 98 97 97 104 104 122 150 150 169 169 148 148 125 122 122 129 129 116 123 123 141 141 124 124 106 93 93 84 84 84 84 94 100 100 98 98 103 100 100 97 97 95 95 102 107 107 107 107 109 102 102 97 97 94 94 90 91 91 87 87 91 94 94 96 96 94 94 94 98 98 97 97 96 102 102 102 102 104 104 111 119 119 116 116 122 122 125 144 144 155 155 158 176 176 186 186 188 188 193 186 186 172 172 178 183 183 194 194 238 238 250 249 249 255 255 245 275 275 320 320 345 345 330 336 336 308 308 308 308 308 302 302 316 316 301 291 291 294 294 296 296
32767 95 124 124 132 132 128 128 116 94 94 89 89 73 81 81 96 96 103 103 110 116 116 118 118 123 131 131 137 137 136 136 127 141 141 153 153 138 150 150 150 150 134 134 116 100 100 87 87 85 85 93 98 98 96 96 95 97 97 104 104 103 103 107 114 114 114 114 114 114 114 107 107 98 98 98 99 99 96 96 101 103 103 99 99 93 93 95 101 101 102 102 103 106 106 111 111 119 119 133 138 138 138 138 145 145 128 129 129 146 146 145 144 144 146 146 152 152 157 154 154 167 167 186 206 206 217 217 246 246 284 305 305 292 292 269 275 275 328 328 359 359 383 379 379 340 340 344 333 333 319 319 336 336 323 300 300 317 317 298 298
32767 95 124 124 132 132 128 128 116 94 94 89 89 73 81 81 96 96 103 103 110 116 116 118 118 123 131 131 137 137 136 136 127 141 141 153 153 138 150 150 150 150 134 134 116 100 100 87 87 85 85 93 98 98 96 96 95 97 97 104 104 103 103 107 114 114 114 114 114 114 114 107 107 98 98 98 99 99 96 96 101 103 103 99 99 93 93 95 101 101 102 102 103 106 106 111 111 119 119 133 138 138 138 138 145 145 128 129 129 146 146 145 144 144 146 146 152 152 157 154 154 167 167 186 206 206 217 217 246 246 284 305 305 292 292 269 275 275 328 328 359 359 383 379 379 340 340 344 333 333 319 319 336 336 323 300 300 317 317 298 298
32767 107 115 115 109 109 111 111 102 94 94 78 78 66 81 81 103 103 88 88 94 102 102 114 114 114 119 119 128 128 138 138 131 124 124 133 133 151 161 161 134 134 122 122 112 99 99 97 97 90 84 84 87 87 88 88 91 99 99 111 111 113 113 112 114 114 114 114 116 117 117 118 118 110 110 106 105 105 106 106 109 103 103 99 99 93 93 95 101 101 102 102 103 106 106 111 111 119 119 133 138 138 138 138 145 128 128 129 129 146 146 145 144 144 146 146 152 152 157 154 154 167 167 186 206 206 217 217 246 246 284 305 305 292 292 269 275 275 328 328 359 359 383 379 379 340 340 344 333 333 319 319 336 336 323 300 300 317 317 298 298
32767 107 115 115 109 109 111 111 102 94 94 78 78 66 81 81 103 103 88 88 94 102 102 114 114 114 119 119 128 128 138 138 131 124 124 133 133 151 161 161 134 134 122 122 112 99 99 97 97 90 84 84 87 87 88 88 91 99 99 111 111 113 113 112 114 114 114 114 116 117 117 118 118 110 110 106 105 105 106 106 109 110 110 105 105 95 95 105 111 111 111 111 115 117 117 115 115 121 121 142 149 149 151 151 146 129 129 135 135 134 134 138 148 148 159 159 165 165 162 177 177 165 165 180 190 190 206 206 232 232 253 280 280 286 286 265 280 280 299 299 325 325 370 393 393 363 363 382 360 360 357 357 355 355 336 336 336 350 350 316 32767
32767 107 115 115 109 109 111 111 102 94 94 78 78 66 81 81 103 103 88 88 94 102 102 114 114 114 119 119 128 128 138 138 131 124 124 133 133 151 161 161 134 134 122 122 112 99 99 97 97 90 84 84 87 87 88 88 91 99 99 111 111 113 113 112 114 114 114 114 116 117 117 118 118 110 110 106 105 105 106 106 109 110 110 105 105 95 95 105 111 111 111 111 115 117 117 115 115 121 121 142 149 149 151 151 146 129 129 135 135 134 134 138 148 148 159 159 165 165 162 177 177 165 165 180 190 190 206 206 232 232 253 280 280 286 286 265 280 280 299 299 325 325 370 393 393 363 363 382 360 360 357 357 355 355 336 336 336 350 350 316 32767
32767 90 92 92 97 97 96 96 87 81 81 80 80 63 78 78 91 91 76 76 89 84 84 106 106 123 125 125 124 124 125 125 121 115 115 130 130 137 152 152 136 136 117 117 111 108 108 116 116 106 94 94 99 99 97 97 89 93 93 100 100 100 100 104 109 109 109 109 115 120 120 124 124 118 118 113 116 116 116 116 119 119 119 109 109 99 99 108 122 122 123 123 127 135 135 133 133 123 123 135 144 144 154 154 140 134 134 141 141 148 148 164 172 172 179 179 186 186 181 189 189 178 178 198 210 210 221 221 235 235 254 274 274 286 286 287 300 300 303 303 323 323 351 382 382 389 389 392 386 386 373 373 362 362 366 376 376 346 346 304 32767
32767 90 92 92 97 97 96 96 87 81 81 80 80 63 78 78 91 91 76 76 89 84 84 106 106 123 125 125 124 124 125 125 121 115 115 130 130 137 152 152 136 136 117 117 111 108 108 116 116 106 94 94 99 99 97 97 89 93 93 100 100 100 100 104 109 109 109 109 115 120 120 124 124 118 118 113 116 116 116 116 119 119 119 109 109 99 99 108 122 122 123 123 127 135 135 133 133 123 123 135 144 144 154 154 140 134 134 141 141 148 148 164 172 172 179 179 186 186 181 189 189 178 178 198 210 210 221 221 235 235 254 274 274 286 286 287 300 300 303 303 323 323 351 382 382 389 389 392 386 386 373 373 362 362 366 376 376 346 346 304 32767
32767 74 85 85 106 106 109 109 97 75 75 68 68 63 67 67 67 67 62 62 71 96 96 140 140 149 135 135 120 120 114 114 105 116 116 128 128 126 128 128 124 124 132 132 131 131 131 125 125 114 101 101 105 105 107 107 98 107 107 102 102 106 106 109 106 106 106 106 109 118 118 117 117 121 121 120 125 125 129 129 128 121 121 118 118 110 110 106 126 126 139 139 143 142 142 133 133 145 145 155 160 160 154 154 146 157 157 160 160 157 157 160 169 169 182 182 204 204 209 212 212 212 212 197 198 198 208 208 225 225 248 270 270 289 289 303 322 322 331 331 356 356 381 393 393 388 388 364 360 360 340 340 334 334 341 362 362 331 331 294 32767
32767 74 85 85 106 106 109 109 97 75 75 68 68 63 67 67 67 67 62 62 71 96 96 140 140 149 135 135 120 120 114 114 105 116 116 128 128 126 128 128 124 124 132 132 131 131 131 125 125 114 101 101 105 105 107 107 98 107 107 102 102 106 106 109 106 106 106 106 109 118 118 117 117 121 121 120 125 125 129 129 128 121 121 118 118 110 110 106 126 126 139 139 143 142 142 133 133 145 145 155 160 160 154 154 146 157 157 160 160 157 157 160 169 169 182 182 204 204 209 212 212 212 212 197 198 198 208 208 225 225 248 270 270 289 289 303 322 322 331 331 356 356 381 393 393 388 388 364 360 360 340 340 334 334 341 362 362 331 331 294 32767
32767 63 76 76 82 82 81 81 74 65 65 55 55 58 65 65 78 78 72 72 83 96 96 121 121 150 132 132 103 103 101 101 110 111 111 102 102 103 113 113 119 119 129 129 146 156 156 136 136 116 107 107 121 121 115 115 102 109 109 118 118 117 117 117 114 114 114 114 104 105 105 107 107 115 115 121 125 125 132 132 137 134 134 130 130 112 112 113 129 129 139 139 136 138 138 139 139 154 154 165 168 168 163 163 157 169 157 160 160 157 157 160 169 169 182 182 204 204 209 212 212 212 212 197 198 198 208 208 225 225 248 270 270 289 289 303 322 322 331 331 356 356 381 393 393 388 388 364 360 360 340 340 334 334 341 362 362 331 331 294 32767
32767 63 76 76 82 82 81 81 74 65 65 55 55 58 65 65 78 78 72 72 83 96 96 121 121 150 132 132 103 103 101 101 110 111 111 102 102 103 113 113 119 119 129 129 146 156 156 136 136 116 107 107 121 121 115 115 102 109 109 118 118 117 117 117 114 114 114 114 104 105 105 107 107 115 115 121 125 125 132 132 137 134 134 130 130 112 112 113 129 129 139 139 136 138 138 139 139 154 154 165 168 168 163 163 157 169 169 174 174 178 178 178 189 189 188 188 199 199 206 216 216 227 227 238 231 231 226 226 221 221 244 261 261 281 281 312 339 339 344 344 368 368 373 358 358 347 347 323 317 317 302 302 322 322 360 371 371 348 348 318 32767
32767 63 76 76 82 82 81 74 74 65 65 55 55 58 65 65 78 78 72 72 83 96 96 121 121 150 132 132 103 103 101 101 110 111 111 102 102 103 113 113 119 119 129 129 146 156 156 136 136 116 107 107 121 121 115 115 102 109 109 118 118 117 117 117 114 114 114 114 104 105 105 107 107 115 115 121 125 125 132 132 137 134 134 130 130 112 112 113 129 129 139 139 136 138 138 139 139 154 154 165 168 168 163 163 157 169 169 174 174 178 178 178 189 189 188 188 199 199 206 216 216 227 227 238 231 231 226 226 221 221 244 261 261 281 281 312 339 339 344 344 368 368 373 358 358 347 347 323 317 317 302 302 322 322 360 371 371 348 348 318 32767
32767 65 85 85 93 93 96 85 85 72 72 58 58 57 80 80 82 82 75 75 90 98 98 110 110 127 104 104 86 86 98 98 91 94 94 112 112 130 125 125 139 139 140 140 153 165 165 143 143 118 116 116 130 130 130 130 117 116 116 109 109 122 122 122 122 122 122 122 114 108 108 114 114 111 111 118 122 122 126 126 129 134 134 132 132 115 115 108 107 107 110 110 124 143 143 149 149 158 158 164 170 170 172 172 172 177 177 177 177 184 184 193 200 200 207 207 216 216 223 234 234 233 233 247 264 264 262 262 262 262 254 268 268 295 295 326 358 358 350 350 344 344 358 338 338 326 326 309 286 286 287 287 326 326 338 352 352 366 366 338 32767
32767 65 85 85 93 93 96 85 85 72 72 58 58 57 80 80 82 82 75 75 90 98 98 110 110 127 104 104 86 86 98 98 91 94 94 112 112 130 125 125 139 139 140 140 153 165 165 143 143 118 116 116 130 130 130 130 117 116 116 109 109 122 122 122 122 122 122 122 114 108 108 114 114 111 111 118 122 122 126 126 129 134 134 132 132 115 115 108 107 107 110 110 124 143 143 149 149 158 158 164 170 170 172 172 172 177 177 177 177 184 184 193 200 200 207 207 216 216 223 234 234 233 233 247 264 264 262 262 262 262 254 268 268 295 295 326 358 358 350 350 344 344 358 338 338 326 326 309 286 286 287 287 326 326 338 352 352 366 366 338 32767
32767 76 76 76 90 90 111 102 102 83 83 69 69 54 64 64 68 68 73 73 88 103 103 124 124 107 84 84 78 78 81 81 94 114 114 136 136 158 148 148 161 161 172 172 171 149 149 128 128 125 144 144 137 137 129 129 128 120 120 108 108 116 127 127 125 125 125 125 116 105 105 109 109 115 115 119 128 128 131 131 134 132 132 135 135 128 128 120 108 108 120 120 135 135 135 150 150 157 157 150 150 150 151 151 167 181 181 191 191 193 193 197 205 205 203 203 220 220 222 231 231 209 209 221 232 232 254 254 286 286 292 307 307 338 338 345 350 350 340 340 338 338 363 347 347 328 328 296 262 262 286 286 328 328 308 322 322 340 340 344 32767
32767 76 76 76 90 90 111 102 102 83 83 69 69 54 64 64 68 68 73 73 88 103 103 124 124 107 84 84 78 78 81 81 94 114 114 136 136 158 148 148 161 161 172 172 171 149 149 128 128 125 144 144 137 137 129 129 128 120 120 108 108 116 127 127 125 125 125 125 116 105 105 109 109 115 115 119 128 128 131 131 134 132 132 135 135 128 128 120 108 108 120 120 135 135 135 150 150 157 157 150 150 150 151 151 167 181 181 191 191 193 193 197 205 205 203 203 220 220 222 231 231 209 209 221 232 232 254 254 286 286 292 307 307 338 338 345 350 350 340 340 338 338 363 347 347 328 328 296 262 262 286 286 328 328 308 322 322 340 340 344 32767
32767 61 74 74 95 95 101 97 97 87 87 62 62 55 83 83 100 100 95 95 96 107 107 110 110 88 72 72 85 85 100 100 104 107 107 123 123 144 155 155 173 173 209 209 194 162 162 145 145 143 147 147 137 137 128 128 119 120 120 122 122 122 136 136 133 133 133 133 130 116 116 114 114 111 111 116 121 121 122 122 124 131 131 137 137 136 136 121 112 112 114 114 115 120 120 127 127 126 126 124 125 125 133 133 142 155 155 165 165 167 167 192 184 184 179 179 195 195 197 207 207 193 193 204 218 218 235 235 253 253 274 292 307 338 338 345 350 350 340 340 338 338 363 347 347 328 328 296 262 262 286 286 328 328 308 322 322 340 340 344 32767
32767 61 74 74 95 95 101 97 97 87 87 62 62 55 83 83 100 100 95 95 96 107 107 110 110 88 72 72 85 85 100 100 104 107 107 123 123 144 155 155 173 173 209 209 194 162 162 145 145 143 147 147 137 137 128 128 119 120 120 122 122 122 136 136 133 133 133 133 130 116 116 114 114 111 111 116 121 121 122 122 124 131 131 137 137 136 136 121 112 112 114 114 115 120 120 127 127 126 126 124 125 125 133 133 142 155 155 165 165 167 167 192 184 184 179 179 195 197 197 207 207 193 193 204 218 218 235 235 253 253 274 292 292 310 310 325 315 315 306 306 326 326 342 315 315 281 281 257 243 243 278 278 307 307 292 279 279 302 302 320 32767
32767 59 78 78 102 102 100 81 81 64 64 52 52 55 83 83 100 100 95 95 96 107 107 110 110 88 72 72 85 85 100 100 104 107 107 123 123 144 155 155 173 173 209 209 194 162 162 145 145 143 147 147 137 137 128 128 119 120 120 122 122 122 136 136 133 133 133 133 130 116 116 114 114 111 111 116 121 121 122 122 124 131 131 137 137 136 136 121 112 112 114 114 115 120 120 127 127 126 126 124 125 125 133 133 142 155 155 165 165 167 167 192 184 184 179 179 195 197 197 207 207 193 193 204 218 218 235 235 253 253 274 292 292 310 310 325 315 315 306 306 326 326 342 315 315 281 281 257 243 243 278 278 307 307 292 279 279 302 302 320 32767
32767 59 78 78 102 102 100 81 81 64 64 52 52 57 80 80 112 112 108 108 100 95 95 91 91 72 71 71 89 89 96 96 112 129 129 145 145 148 149 149 170 170 187 187 194 182 182 156 156 152 152 152 154 154 145 145 128 129 129 135 135 133 139 139 137 137 137 137 125 129 129 130 130 129 129 125 128 128 127 127 126 126 126 143 143 139 139 127 129 129 129 129 125 119 119 129 129 134 134 153 151 151 137 137 130 131 131 137 137 147 147 157 159 159 167 167 167 167 167 175 175 181 181 197 208 208 227 227 239 239 250 263 263 264 264 285 299 299 286 286 291 291 304 283 283 275 275 247 225 225 236 236 249 249 247 232 232 236 236 258 32767
32767 59 78 78 102 102 100 81 81 64 64 52 52 57 80 80 112 112 108 100 100 95 95 91 91 72 71 71 89 89 96 96 112 129 129 145 145 148 149 149 170 170 187 187 194 182 182 156 156 152 152 152 154 154 145 145 128 129 129 135 135 133 139 139 137 137 137 137 125 129 129 130 130 129 129 125 128 128 127 127 126 126 126 143 143 139 139 127 129 129 129 129 125 119 119 129 129 134 134 153 151 151 137 137 130 131 131 137 137 147 147 157 159 159 167 167 167 167 167 175 175 181 181 197 208 208 227 227 239 239 250 263 263 264 264 285 299 299 286 286 291 291 304 283 283 275 275 247 225 225 236 236 249 249 247 232 232 236 236 258 32767
32767 67 79 79 98 98 96 80 80 59 59 55 55 81 97 97 99 99 84 73 73 74 74 75 75 64 79 79 89 89 101 101 120 143 143 142 142 131 136 136 143 143 160 160 182 177 177 171 171 170 164 164 154 154 145 145 151 142 142 148 148 148 146 146 146 146 146 146 137 142 142 142 142 143 143 137 143 143 146 146 145 133 133 140 140 141 141 143 142 142 144 144 137 125 125 145 145 158 158 170 173 173 165 165 157 164 164 149 149 139 139 142 140 140 141 141 149 158 158 166 166 177 177 185 195 195 197 197 203 203 209 221 221 224 224 242 276 276 292 292 267 267 255 268 268 282 282 259 255 255 235 235 226 226 216 208 208 205 205 222 32767
32767 67 79 79 98 98 96 80 80 59 59 55 55 81 97 97 99 99 84 73 73 74 74 75 75 64 79 79 89 89 101 101 120 143 143 142 142 131 136 136 143 143 160 160 182 177 177 171 171 170 164 164 154 154 145 145 151 142 142 148 148 148 146 146 146 146 146 146 137 142 142 142 142 143 143 137 143 143 146 146 145 133 133 140 140 141 141 143 142 142 144 144 137 125 125 145 145 158 158 170 173 173 165 165 157 164 164 149 149 139 139 142 140 140 141 141 149 158 158 166 166 177 177 185 195 195 197 197 203 203 209 221 221 224 224 242 276 276 292 292 267 267 255 268 268 282 282 259 255 255 235 235 226 226 216 208 208 205 205 222 32767
32767 104 110 110 112 112 97 71 71 52 52 54 54 70 77 77 67 67 61 73 73 84 84 75 75 62 79 79 102 102 129 129 138 120 120 117 117 137 160 160 172 172 168 168 170 156 156 154 154 177 168 168 171 171 178 178 176 162 162 159 159 160 160 160 159 159 159 159 153 152 152 160 160 161 161 161 164 164 161 161 151 137 137 135 135 146 146 162 165 165 153 153 146 137 137 141 141 162 162 177 187 187 184 184 169 157 157 152 152 163 163 166 178 178 152 152 160 178 178 169 169 168 168 174 179 179 191 191 199 199 203 219 219 237 237 242 249 249 269 269 275 275 239 246 246 257 257 267 257 257 252 252 261 261 265 266 266 205 205 222 32767
32767 104 110 110 112 112 97 71 71 52 52 54 54 70 77 77 67 67 61 73 73 84 84 75 75 62 79 79 102 102 129 129 138 120 120 117 117 137 160 160 172 172 168 168 170 156 156 154 154 177 168 168 171 171 178 178 176 162 162 159 159 160 160 160 159 159 159 159 153 152 152 160 160 161 161 161 164 164 161 161 151 137 137 135 135 146 146 162 165 165 153 153 146 137 137 141 141 162 162 177 187 187 184 184 169 157 157 152 152 163 163 166 178 178 152 152 160 178 178 169 169 168 168 174 179 179 191 191 199 199 203 219 219 237 237 242 249 249 269 269 275 275 239 246 246 257 257 267 257 257 252 252 261 261 265 266 266 207 207 203 32767
32767 87 88 88 72 72 70 63 63 49 49 49 49 51 50 50 51 51 64 78 78 83 83 65 65 73 99 99 113 113 123 123 111 111 111 145 145 166 160 160 172 172 168 168 170 156 156 154 154 177 168 168 171 171 178 178 176 162 162 159 159 160 160 160 159 159 159 159 153 152 152 160 160 161 161 161 164 164 161 161 151 137 137 135 135 146 146 162 165 165 153 153 146 137 137 141 141 162 162 177 187 187 184 184 169 157 157 152 152 163 163 166 178 178 152 152 160 178 178 169 169 168 168 174 179 179 191 191 199 199 203 219 219 237 237 242 249 249 269 269 275 275 239 246 246 257 257 267 257 257 252 252 261 261 265 266 266 207 207 203 32767
32767 87 88 88 72 72 70 63 63 49 49 49 49 51 50 50 51 51 64 78 78 83 83 65 65 73 99 99 113 113 123 123 111 111 111 145 145 166 181 181 170 170 143 143 140 129 129 157 157 168 165 165 165 165 161 161 172 180 180 172 172 179 180 180 182 182 182 182 175 171 171 182 182 187 179 179 171 171 163 163 154 146 146 139 139 140 140 153 167 167 173 173 161 161 161 146 146 145 145 157 169 169 177 177 177 165 165 174 174 188 188 191 181 181 164 164 161 184 184 190 190 192 192 212 220 220 234 234 241 241 236 246 246 260 260 258 252 252 238 238 241 241 244 230 230 224 224 223 212 212 210 210 216 216 241 255 255 210 210 157 32767
32767 87 88 88 72 72 70 63 63 49 49 49 49 51 50 50 51 51 64 78 78 83 83 65 65 73 99 99 113 113 123 123 111 111 111 145 145 166 181 181 170 170 143 143 140 129 129 157 157 168 165 165 165 165 161 161 172 180 180 172 172 179 180 180 182 182 182 182 175 171 171 182 182 187 179 179 171 171 163 163 154 146 146 139 139 140 140 153 167 167 173 173 161 161 161 146 146 145 145 157 169 169 177 177 177 165 165 174 174 188 188 191 181 181 164 164 161 184 184 190 190 192 192 212 220 220 234 234 241 241 236 246 246 260 260 258 252 252 238 238 241 241 244 230 230 224 224 223 212 212 210 210 216 216 241 255 255 210 210 157 32767
32767 58 55 55 55 55 52 49 49 49 49 48 48 44 52 52 65 65 86 89 89 86 86 72 72 66 83 83 88 88 91 91 109 137 137 143 143 165 172 172 156 156 144 144 116 121 121 129 129 136 145 145 150 150 136 136 145 160 160 157 157 160 160 160 185 185 185 185 188 165 165 164 164 166 164 164 165 165 164 164 154 151 151 157 157 150 150 149 162 162 176 176 192 190 190 167 167 160 160 168 190 190 193 193 189 184 184 194 194 210 210 209 203 203 182 182 182 180 180 202 202 225 225 243 239 239 230 230 245 245 240 245 245 239 239 204 192 192 189 189 204 204 215 200 200 234 234 245 219 219 230 230 220 220 196 183 183 189 189 169 32767
32767 58 55 55 55 55 52 49 49 49 49 48 48 44 52 52 65 65 86 89 89 86 86 72 72 66 83 83 88 88 91 91 109 137 137 143 143 165 172 172 156 156 144 144 116 121 121 129 129 136 145 145 150 150 136 136 145 160 160 157 157 160 160 160 185 185 185 185 188 165 165 164 164 166 164 164 165 165 164 164 154 151 151 157 157 150 150 149 162 162 176 176 192 190 190 167 167 160 160 168 190 190 193 193 189 184 184 194 194 210 210 209 203 203 182 182 182 180 180 202 202 225 225 243 239 239 230 230 245 245 240 245 245 239 239 204 192 192 189 189 204 204 215 200 200 234 234 245 219 219 230 230 220 220 196 183 183 189 189 169 32767
32767 56 55 55 56 56 51 51 51 46 46 43 43 54 85 85 97 97 104 104 104 99 99 66 66 70 79 79 72 72 99 114 114 116 116 146 146 149 144 144 134 134 110 110 99 112 112 128 128 118 126 126 115 115 130 130 152 161 161 137 137 126 125 125 142 142 142 142 146 125 125 127 127 127 129 129 132 132 141 141 157 163 163 170 170 162 162 170 166 166 184 184 200 200 200 179 179 188 188 196 216 216 227 227 210 211 211 217 217 232 232 230 213 213 199 199 207 200 200 208 208 226 226 239 223 223 194 194 202 202 196 209 209 222 222 204 171 171 161 161 154 154 167 173 173 214 214 245 247 247 266 266 252 252 234 203 203 161 161 158 32767
32767 56 55 55 56 56 51 51 51 46 46 43 43 54 85 85 97 97 104 104 104 99 99 66 66 70 79 79 72 72 99 114 114 116 116 146 146 149 144 144 134 134 110 110 99 112 112 128 128 118 126 126 115 115 130 130 152 161 161 137 137 126 125 125 142 142 142 142 146 125 125 127 127 127 129 129 132 132 141 141 157 163 163 170 170 162 162 170 166 166 184 184 200 200 200 179 179 188 188 196 216 216 227 227 210 211 211 217 217 232 232 230 213 213 199 199 207 200 200 208 208 226 226 239 223 223 194 194 202 202 196 209 209 222 222 204 171 171 161 161 154 154 167 173 173 214 214 245 247 247 266 266 252 252 234 203 203 161 161 158 32767
32767 49 46 46 47 47 53 62 62 48 48 47 47 54 81 81 87 87 90 104 104 84 84 56 56 56 64 64 82 82 87 95 95 122 122 138 138 123 111 111 116 116 93 93 96 113 113 122 122 109 101 101 114 114 129 129 140 137 137 127 127 103 100 100 142 142 142 142 146 125 125 127 127 127 129 129 132 132 141 141 157 163 163 170 170 162 162 170 166 166 184 184 200 200 200 179 179 188 188 196 216 216 227 227 210 211 211 217 217 232 232 230 213 213 199 199 207 200 200 208 208 226 226 239 223 223 194 194 202 202 196 209 209 222 222 204 171 171 161 161 154 154 167 173 173 214 214 245 247 247 266 266 252 252 234 203 203 161 161 158 32767
32767 49 46 46 47 47 53 62 62 48 48 47 47 54 81 81 87 87 90 104 104 84 84 56 56 56 64 64 82 82 87 95 95 122 122 138 138 123 111 111 116 116 93 93 96 113 113 122 122 109 101 101 114 114 129 129 140 137 137 127 127 103 100 100 104 104 104 104 106 111 111 127 127 136 152 152 143 143 162 162 195 185 185 190 190 182 182 200 198 198 205 205 215 217 217 216 216 217 217 218 216 216 217 217 222 229 229 231 231 253 253 239 224 224 209 209 217 218 218 224 224 230 230 231 210 210 193 193 164 164 161 196 196 216 216 212 199 199 178 178 134 134 136 164 164 191 191 222 268 268 292 292 290 290 262 233 233 210 210 190 32767
32767 49 46 46 47 47 53 62 62 48 48 47 47 54 81 81 87 87 90 104 104 84 84 56 56 56 64 64 82 82 87 95 95 122 122 138 138 123 111 111 116 116 93 93 96 113 113 122 122 109 101 101 114 114 129 129 140 137 137 127 127 103 100 100 104 104 104 104 106 111 111 127 127 136 152 152 143 143 162 162 195 185 185 190 190 182 182 200 198 198 205 205 215 217 217 216 216 217 217 218 216 216 217 217 222 229 229 231 231 253 253 239 224 224 209 209 217 218 218 224 224 230 230 231 210 210 193 193 164 164 161 196 196 216 216 212 199 199 178 178 134 134 136 164 164 191 191 222 268 268 292 292 290 290 262 233 233 210 210 190 32767
32767 51 62 62 68 68 81 71 71 48 48 44 44 52 74 74 71 71 84 92 92 78 78 50 50 52 67 67 70 70 82 102 102 117 117 121 121 105 86 86 87 87 78 78 92 108 108 120 120 101 94 94 115 115 132 132 142 130 130 108 108 87 86 86 103 103 103 103 118 128 128 153 153 165 187 187 180 180 176 176 217 229 229 231 231 221 221 232 242 242 236 236 228 216 216 212 212 207 207 214 203 203 182 182 176 178 178 192 192 219 219 203 186 186 170 170 193 202 202 208 208 211 211 221 229 229 208 208 183 152 152 145 145 170 170 182 191 191 170 170 128 128 117 150 150 174 174 191 212 212 228 228 263 263 261 225 225 211 211 199 32767
32767 51 62 62 68 68 81 71 71 48 48 44 44 52 74 74 71 71 84 92 92 78 78 50 50 52 67 67 70 70 82 102 102 117 117 121 121 105 86 86 87 87 78 78 92 108 108 120 120 101 94 94 115 115 132 132 142 130 130 108 108 87 86 86 103 103 103 103 118 128 128 153 153 165 187 187 180 180 176 176 217 229 229 231 231 221 221 232 242 242 236 236 228 216 216 212 212 207 207 214 203 203 182 182 176 178 178 192 192 219 219 203 186 186 170 170 193 202 202 208 208 211 211 221 229 229 208 208 183 152 152 145 145 170 170 182 191 191 170 170 128 128 117 150 150 174 174 191 212 212 228 228 263 263 261 225 225 211 211 199 32767
32767 75 97 97 83 83 64 44 44 45 45 43 43 56 64 64 62 62 75 79 79 58 58 46 46 58 84 84 94 94 92 95 95 99 99 107 107 112 94 94 71 71 85 85 111 125 125 107 107 89 94 94 110 110 128 128 140 132 132 102 102 79 87 87 106 106 106 106 127 157 157 159 159 186 222 222 232 232 208 208 247 293 293 296 296 281 281 258 234 234 204 204 193 177 177 177 177 161 161 165 167 167 161 161 152 145 145 162 162 188 188 160 170 170 148 148 172 175 175 173 173 179 179 200 221 221 211 211 206 189 189 143 143 126 126 125 136 136 144 144 142 142 101 109 109 132 132 144 162 162 185 185 203 203 193 174 174 157 157 143 32767
32767 75 97 97 83 83 64 44 44 45 45 43 43 56 64 64 62 62 75 79 79 58 58 46 46 58 84 84 94 94 92 95 95 99 99 107 107 112 94 94 71 71 85 85 111 125 125 107 107 89 94 94 110 110 128 128 140 132 132 102 102 79 87 87 106 106 106 106 127 157 157 159 159 186 222 222 232 232 208 208 247 293 293 296 296 281 281 258 234 234 204 204 193 177 177 177 177 161 161 165 167 167 161 161 152 145 145 162 162 188 188 160 170 170 148 148 172 175 175 173 173 179 179 200 221 221 211 211 206 189 189 143 143 126 126 125 136 136 144 144 142 142 101 109 109 132 132 144 162 162 185 185 203 203 193 174 174 157 157 143 32767
32767 101 100 100 87 87 62 43 43 43 43 43 43 53 60 60 52 52 58 54 54 46 46 41 41 58 83 83 74 74 79 100 100 107 107 93 93 97 76 76 69 69 91 91 96 91 91 80 80 92 119 119 127 127 121 121 108 97 97 79 79 83 105 105 134 134 134 134 151 174 174 201 201 214 242 242 247 247 245 245 261 288 288 270 270 241 210 210 196 234 204 204 193 177 177 177 177 161 161 165 167 167 161 161 152 145 145 162 162 188 188 160 170 170 148 148 172 175 175 173 173 179 179 200 221 221 211 211 206 189 189 143 143 126 126 125 136 136 144 144 142 142 101 109 109 132 132 144 162 162 185 185 203 203 193 174 174 157 157 143 32767
32767 101 100 100 87 87 62 43 43 43 43 43 43 53 60 60 52 52 58 54 54 46 46 41 41 58 83 83 74 74 79 100 100 107 107 93 93 97 76 76 69 69 91 91 96 91 91 80 80 92 119 119 127 127 121 121 108 97 97 79 79 83 105 105 134 134 134 134 151 174 174 201 201 214 242 242 247 247 245 245 261 288 288 270 270 241 210 210 196 196 175 175 163 155 155 143 143 133 133 131 124 124 118 118 113 117 117 130 130 139 139 134 126 126 137 137 143 136 136 145 145 167 167 195 185 185 183 183 191 191 191 168 168 147 147 111 94 94 121 121 117 117 82 105 105 109 109 130 140 140 147 147 173 173 167 146 146 136 136 120 32767
32767 101 100 100 87 87 62 43 43 43 43 43 43 53 60 60 52 52 58 54 54 46 46 41 41 58 83 83 74 74 79 100 100 107 107 93 93 97 76 76 69 69 91 91 96 91 91 80 80 92 119 119 127 127 121 121 108 97 97 79 79 83 105 105 134 134 134 134 151 174 174 201 201 214 242 242 247 247 245 245 261 288 288 270 270 241 210 210 196 196 175 175 163 155 155 143 143 133 133 131 124 124 118 118 113 117 117 130 130 139 139 134 126 126 137 137 143 136 136 145 145 167 167 195 185 185 183 183 191 191 191 168 168 147 147 111 94 94 121 121 117 117 82 105 105 109 109 130 140 140 147 147 173 173 167 146 146 136 136 120 32767
32767 95 99 99 95 95 78 59 59 40 40 38 38 38 44 44 47 47 40 36 36 39 39 45 45 64 76 76 63 63 75 97 97 105 105 88 88 77 63 63 76 76 80 67 67 76 76 92 92 111 124 124 107 107 91 91 91 70 70 83 83 108 130 130 139 139 139 139 150 174 174 191 191 188 201 201 202 202 212 212 230 261 261 258 258 224 203 203 204 204 200 200 208 182 182 175 175 162 162 160 153 153 145 145 129 107 107 100 100 98 98 122 109 109 129 129 126 114 114 128 128 141 141 151 149 149 139 139 158 170 170 166 166 152 152 128 89 89 84 84 83 83 70 77 77 93 93 103 105 105 116 116 134 134 141 148 148 148 148 129 32767
32767 95 99 99 95 95 78 59 59 40 40 38 38 38 44 44 47 47 40 36 36 39 39 45 45 64 76 76 63 63 75 97 97 105 105 88 88 77 63 63 76 76 80 67 67 76 76 92 92 111 124 124 107 107 91 91 91 70 70 83 83 108 130 130 139 139 139 139 150 174 174 191 191 188 201 201 202 202 212 212 230 261 261 258 258 224 203 203 204 204 200 200 208 182 182 175 175 162 162 160 153 153 145 145 129 107 107 100 100 98 98 122 109 109 129 129 126 114 114 128 128 141 141 151 149 149 139 139 158 170 170 166 166 152 152 128 89 89 84 84 83 83 70 77 77 93 93 103 105 105 116 116 134 134 141 148 148 148 148 129 32767
87 87 84 84 93 93 85 71 71 58 58 40 40 36 38 38 42 42 44 42 42 44 44 45 45 51 56 56 61 61 79 88 88 88 88 81 81 68 52 52 58 58 62 76 76 94 94 115 115 123 106 106 98 98 81 81 73 63 63 85 85 108 112 112 131 131 131 131 144 147 147 160 160 181 199 199 222 222 243 243 257 259 259 267 267 253 238 238 260 260 267 267 269 238 238 220 220 223 223 221 214 214 196 196 173 146 146 123 123 89 89 95 101 101 123 123 113 99 99 114 114 113 113 121 135 135 119 119 119 123 123 131 131 115 115 107 101 101 91 91 65 65 67 102 102 107 107 99 113 113 127 127 127 127 147 178 178 169 169 157 32767
87 87 84 84 93 93 85 71 71 58 58 40 40 36 38 38 42 42 44 42 42 44 44 45 45 51 56 56 61 61 79 88 88 88 88 81 81 68 52 52 58 58 62 76 76 94 94 115 115 123 106 106 98 98 81 81 73 63 63 85 85 108 112 112 131 131 131 131 144 147 147 160 160 181 199 199 222 222 243 243 257 259 259 267 267 253 238 238 260 260 267 267 269 238 238 220 220 223 223 221 214 214 196 196 173 146 146 123 123 89 89 95 101 101 123 123 113 99 99 114 114 113 113 121 135 135 119 119 119 123 123 131 131 115 115 107 101 101 91 91 65 65 67 102 102 107 107 99 113 113 127 127 127 127 147 178 178 169 169 157 32767
81 81 69 69 74 74 75 66 66 51 51 42 42 42 36 36 37 37 48 44 44 35 35 36 36 43 59 59 67 67 75 78 78 75 75 74 74 62 50 50 63 63 77 99 99 116 116 111 111 100 85 85 64 64 59 59 59 69 69 78 78 96 119 119 127 127 127 127 135 162 162 189 189 231 252 252 263 263 266 266 260 221 221 219 219 243 266 266 284 284 269 269 253 241 241 231 231 229 229 220 229 229 197 197 164 135 135 115 115 94 94 79 105 105 127 123 113 99 99 114 114 113 113 121 135 135 119 119 119 123 123 131 131 115 115 107 101 101 91 91 65 65 67 102 102 107 107 99 113 113 127 127 127 127 147 178 178 169 169 157 32767
81 81 69 69 74 74 75 66 66 51 51 42 42 42 36 36 37 37 48 44 44 35 35 36 36 43 59 59 67 67 75 78 78 75 75 74 74 62 50 50 63 63 77 99 99 116 116 111 111 100 85 85 64 64 59 59 59 69 69 78 78 96 119 119 127 127 127 127 135 162 162 189 189 231 252 252 263 263 266 266 260 221 221 219 219 243 266 266 284 284 269 269 253 241 241 231 231 229 229 220 229 229 197 197 164 135 135 115 115 94 94 79 105 105 127 127 121 94 94 92 92 95 95 99 109 109 107 107 91 97 97 98 98 98 98 74 72 72 65 65 57 57 73 90 90 110 110 125 127 127 156 156 156 156 169 215 215 189 189 215 32767
81 81 69 69 74 74 75 66 66 51 51 42 42 42 36 36 37 37 48 44 44 35 35 36 36 43 59 59 67 67 75 78 78 75 75 74 74 62 50 50 63 63 77 99 99 116 116 111 111 100 85 85 64 64 59 59 59 69 69 78 78 96 119 119 127 127 127 127 135 162 162 189 189 231 252 252 263 263 266 266 260 221 221 219 219 243 266 266 284 284 269 269 253 241 241 231 231 229 229 220 229 229 197 197 164 135 135 115 115 94 94 79 105 105 127 127 121 94 94 92 92 95 95 99 109 109 107 107 91 97 97 98 98 98 98 74 72 72 65 65 57 57 73 90 90 110 110 125 127 127 156 156 156 156 169 215 215 189 189 215 32767
73 73 63 63 58 58 64 61 61 64 64 66 66 51 36 36 37 37 35 38 38 35 35 33 33 34 44 44 50 50 62 61 61 69 69 61 61 49 54 54 71 71 90 100 100 100 100 97 97 83 71 71 51 51 62 62 76 81 81 89 89 93 105 105 118 118 118 118 157 210 210 238 238 275 266 266 240 240 216 216 211 177 177 160 160 178 228 228 270 270 244 244 216 209 209 204 204 212 212 193 202 202 200 200 166 136 136 119 119 95 95 73 97 97 103 103 119 106 106 86 86 76 76 70 86 86 93 93 75 70 70 73 73 68 68 52 60 60 62 62 82 82 93 114 114 133 133 169 170 170 185 185 179 179 185 237 237 245 245 271 32767
73 73 63 63 58 58 64 61 61 64 64 66 66 51 36 36 37 37 35 38 38 35 35 33 33 34 44 44 50 50 62 61 61 69 69 61 61 49 54 54 71 71 90 100 100 100 100 97 97 83 71 71 51 51 62 62 76 81 81 89 89 93 105 105 118 118 118 118 157 210 210 238 238 275 266 266 240 240 216 216 211 177 177 160 160 178 228 228 270 270 244 244 216 209 209 204 204 212 212 193 202 202 200 200 166 136 136 119 119 95 95 73 97 97 103 103 119 106 106 86 86 76 76 70 86 86 93 93 75 70 70 73 73 68 68 52 60 60 62 62 82 82 93 114 114 133 133 169 170 170 185 185 179 179 185 237 237 245 245 271 32767
71 71 65 65 62 62 53 50 50 54 54 59 59 57 42 42 38 38 36 34 34 35 35 33 33 35 38 38 47 47 58 51 51 56 56 48 48 48 71 71 89 89 87 80 80 80 80 86 86 84 62 62 52 52 55 55 83 105 105 118 118 133 142 142 170 170 170 170 205 254 254 270 270 263 228 228 186 186 164 164 145 133 133 150 150 187 243 243 264 264 231 231 195 177 177 185 185 193 193 177 167 167 164 164 168 146 146 111 111 81 81 67 77 77 97 97 104 90 90 93 93 88 88 69 76 76 77 77 64 45 45 39 39 43 43 54 74 74 80 80 88 88 96 118 118 140 140 170 197 197 213 213 227 227 233 276 276 308 308 318 32767
71 71 65 65 62 62 53 50 50 54 54 59 59 57 42 42 38 38 36 34 34 35 35 33 33 35 38 38 47 47 58 51 51 56 56 48 48 48 71 71 89 89 87 80 80 80 80 86 86 84 62 62 52 52 55 55 83 105 105 118 118 133 142 142 170 170 170 170 205 254 254 270 270 263 228 228 186 186 164 164 145 133 133 150 150 187 243 243 264 264 231 231 195 177 177 185 185 193 193 177 167 167 164 164 168 146 146 111 111 81 81 67 77 77 97 97 104 90 90 93 93 88 88 69 76 76 77 77 64 45 45 39 39 43 43 54 74 74 80 80 88 88 96 118 118 140 140 170 197 197 213 213 227 227 233 276 276 308 308 318 32767
79 79 75 75 69 69 61 53 53 42 42 56 56 62 56 56 51 51 39 36 36 32 32 34 34 38 37 37 43 43 53 43 43 42 42 49 49 60 74 74 85 85 73 63 63 68 68 73 73 71 52 52 46 46 60 60 85 119 119 142 142 161 195 195 224 224 224 224 228 230 230 212 212 188 176 176 169 169 150 150 131 120 120 155 155 192 220 220 242 242 221 221 200 186 186 169 169 196 196 202 177 177 138 138 150 140 140 114 114 93 93 68 64 64 75 75 84 83 83 70 70 61 61 59 58 58 50 50 40 35 35 49 49 68 68 83 86 86 99 99 88 88 96 118 118 140 140 170 197 197 213 213 227 227 233 276 276 308 308 318 32767
79 79 75 75 69 69 61 53 53 42 42 56 56 62 56 56 51 51 39 36 36 32 32 34 34 38 37 37 43 43 53 43 43 42 42 49 49 60 74 74 85 85 73 63 63 68 68 73 73 71 52 52 46 46 60 60 85 119 119 142 142 161 195 195 224 224 224 224 228 230 230 212 212 188 176 176 169 169 150 150 131 120 120 155 155 192 220 220 242 242 221 221 200 186 186 169 169 196 196 202 177 177 138 138 150 140 140 114 114 93 93 68 64 64 75 75 84 83 83 70 70 61 61 59 58 58 50 50 40 35 35 49 49 68 68 83 86 86 99 99 115 115 119 123 123 143 143 160 197 197 240 240 274 274 298 313 313 325 325 302 32767
71 71 64 64 68 68 67 59 59 45 45 41 45 45 48 48 52 52 39 35 35 32 32 34 34 38 37 37 43 43 53 43 43 42 42 49 49 60 74 74 85 85 73 63 63 68 68 73 73 71 52 52 46 46 60 85 85 119 119 142 142 161 195 195 224 224 224 224 228 230 230 212 212 188 176 176 169 169 150 150 131 120 120 155 155 192 220 220 242 242 221 221 200 186 186 169 169 196 202 202 177 177 138 138 150 140 140 114 114 93 93 68 64 64 75 75 84 83 83 70 70 61 61 59 58 58 50 50 40 35 35 49 49 68 68 83 86 86 99 99 115 115 119 123 123 143 143 160 197 197 240 240 274 274 298 313 313 325 325 302 32767
71 71 64 64 68 68 67 59 59 45 45 41 45 45 48 48 52 52 39 35 35 33 33 33 33 33 33 33 53 53 55 37 37 44 44 54 54 61 67 67 68 68 65 53 53 63 63 55 55 45 44 44 60 60 80 99 99 110 110 120 120 139 171 171 174 174 174 174 165 163 163 165 165 142 129 129 130 130 107 107 98 115 115 141 141 179 227 227 240 240 207 207 199 193 193 165 165 165 181 181 180 180 148 148 114 121 121 138 138 113 113 95 64 64 53 53 64 80 80 73 73 51 51 55 54 54 51 51 33 35 35 61 61 86 86 110 125 125 133 133 144 168 168 167 167 188 188 208 233 233 273 273 296 296 322 310 310 299 299 269 32767
71 71 64 64 68 68 67 59 59 45 45 41 45 45 48 48 52 52 39 35 35 33 33 33 33 33 33 33 53 53 55 37 37 44 44 54 54 61 67 67 68 68 65 53 53 63 63 55 55 45 44 44 60 60 80 99 99 110 110 120 120 139 171 171 174 174 174 174 165 163 163 165 165 142 129 129 130 130 107 107 98 115 115 141 141 179 227 227 240 240 207 207 199 193 193 165 165 165 181 181 180 180 148 148 114 121 121 138 138 113 113 95 64 64 53 53 64 80 80 73 73 51 51 55 54 54 51 51 33 35 35 61 61 86 86 110 125 125 133 133 144 168 168 167 167 188 188 208 233 233 273 273 296 296 322 310 310 299 299 269 32767
71 71 61 61 54 54 54 49 49 44 44 39 36 36 44 44 51 51 37 34 34 33 33 33 33 31 40 40 56 56 47 34 34 44 44 45 45 53 55 55 47 47 48 59 59 61 61 44 44 39 54 54 68 68 91 109 109 120 120 138 138 151 152 152 134 134 134 134 127 128 128 149 149 136 114 114 95 95 85 85 109 139 139 153 153 197 242 242 216 216 184 184 165 155 155 136 136 137 162 162 148 148 135 135 118 99 99 120 120 112 112 87 82 82 57 57 47 55 55 61 61 47 47 34 38 38 31 31 34 62 62 71 71 90 90 113 139 139 129 129 147 181 181 180 180 207 207 245 267 267 276 276 293 293 290 261 261 236 236 217 32767
71 71 61 61 54 54 54 49 49 44 44 39 36 36 44 44 51 51 37 34 34 33 33 33 33 31 40 40 56 56 47 34 34 44 44 45 45 53 55 55 47 47 48 59 59 61 61 44 44 39 54 54 68 68 91 109 109 120 120 138 138 151 152 152 134 134 134 134 127 128 128 149 149 136 114 114 95 95 85 85 109 139 139 153 153 197 242 242 216 216 184 184 165 155 155 136 136 137 162 162 148 148 135 135 118 99 99 120 120 112 112 87 82 82 57 57 47 55 55 61 61 47 47 34 38 38 31 31 34 62 62 71 71 90 90 113 139 139 129 129 147 181 181 180 180 207 207 245 267 267 276 276 293 293 290 261 261 236 236 217 32767
59 59 56 56 53 53 51 55 55 56 56 50 42 42 37 37 47 47 35 31 31 34 34 34 34 34 46 46 53 53 38 31 31 41 41 38 38 41 45 45 51 51 65 57 57 38 38 36 36 41 70 70 99 99 119 136 136 129 129 129 129 142 126 126 105 105 105 105 103 120 120 136 136 122 100 100 79 79 89 89 115 108 108 123 123 146 164 164 162 162 166 166 174 154 154 127 127 113 150 150 166 166 151 151 119 96 96 84 84 86 86 72 65 65 60 60 49 39 39 40 40 30 30 37 24 24 22 22 35 50 50 68 68 71 71 90 96 96 93 93 138 152 152 142 142 192 192 246 251 251 271 271 253 253 221 214 214 198 198 170 32767
59 59 56 56 53 53 51 55 55 56 56 50 42 42 37 37 47 47 35 31 31 34 34 34 34 34 46 46 53 53 38 31 31 41 41 38 38 41 45 45 51 51 65 57 57 38 38 36 36 41 70 70 99 99 119 136 136 129 129 129 129 142 126 126 105 105 105 105 103 120 120 136 136 122 100 100 79 79 89 89 115 108 108 123 123 146 164 164 162 162 166 166 174 154 154 127 127 113 150 150 166 166 151 151 119 96 96 84 84 86 86 72 65 65 60 60 49 39 39 40 40 30 30 37 24 24 22 22 35 50 50 68 68 71 71 90 96 96 93 93 138 152 152 142 142 192 192 246 251 251 271 271 253 253 221 214 214 198 198 170 32767
55 55 47 47 43 43 43 42 42 45 45 54 52 52 44 44 37 37 34 30 30 30 30 29 29 30 39 39 43 43 30 32 32 39 39 43 43 45 45 45 52 52 56 47 47 32 32 36 36 41 70 70 99 99 119 136 136 129 129 129 129 142 126 126 105 105 105 105 103 120 120 136 136 122 100 100 79 79 89 89 115 108 108 123 123 146 164 164 162 162 166 166 174 154 154 127 127 113 150 150 166 166 151 151 119 96 96 84 84 86 86 72 65 65 60 60 49 39 39 40 40 30 30 37 24 24 22 22 35 50 50 68 68 71 71 90 96 96 93 93 138 152 152 142 142 192 192 246 251 251 271 271 253 253 221 214 214 198 198 170 32767
55 55 47 47 43 43 43 42 42 45 45 54 52 52 44 44 37 37 34 30 30 30 30 29 29 30 39 39 43 43 30 32 32 39 39 43 43 45 45 45 52 52 56 47 47 32 32 42 42 52 66 66 76 76 100 114 114 96 96 99 99 117 103 103 88 88 88 88 108 130 130 118 118 97 82 82 65 65 76 76 82 91 91 110 110 127 128 128 125 125 139 139 152 139 139 120 120 103 118 118 135 135 130 130 119 104 104 94 94 87 87 84 81 81 80 80 67 53 53 45 45 53 53 54 27 27 21 21 29 50 50 46 46 47 47 61 67 67 67 67 98 104 104 118 118 154 154 195 195 195 219 219 197 197 178 134 134 139 139 136 32767
55 55 47 47 43 43 43 42 42 45 45 54 52 52 44 44 37 37 34 30 30 30 30 29 29 30 39 39 43 43 30 32 32 39 39 43 43 45 45 45 52 52 56 47 47 32 32 42 42 52 66 66 76 76 100 114 114 96 96 99 99 117 103 103 88 88 88 88 108 130 130 118 118 97 82 82 65 65 76 76 82 91 91 110 110 127 128 128 125 125 139 139 152 139 139 120 120 103 118 118 135 135 130 130 119 104 104 94 94 87 87 84 81 81 80 80 67 53 53 45 45 53 53 54 27 27 21 21 29 50 50 46 46 47 47 61 67 67 67 67 98 104 104 118 118 154 154 195 195 195 219 219 197 197 178 134 134 139 139 136 32767
49 49 44 44 55 55 55 41 41 34 34 35 38 38 39 39 34 34 30 30 30 29 29 29 29 29 38 38 43 43 32 39 39 48 48 35 35 34 44 44 56 56 45 35 35 32 32 38 38 48 64 64 79 79 87 88 88 74 74 94 94 105 87 87 80 80 80 80 101 104 104 92 92 82 66 66 57 57 68 68 89 98 98 104 104 104 109 109 128 128 145 145 152 136 136 114 114 96 92 92 91 91 91 91 99 113 113 98 98 90 90 108 102 102 90 90 85 79 79 76 76 72 72 59 42 42 20 20 25 34 34 24 24 27 27 35 38 38 64 64 74 75 75 106 106 124 124 123 132 132 128 128 120 120 123 112 112 88 88 110 32767
49 49 44 44 55 55 55 41 41 34 34 35 38 38 39 39 34 34 30 30 30 29 29 29 29 29 38 38 43 43 32 39 39 48 48 35 35 34 44 44 56 56 45 35 35 32 32 38 38 48 64 64 79 79 87 88 88 74 74 94 94 105 87 87 80 80 80 80 101 104 104 92 92 82 66 66 57 57 68 68 89 98 98 104 104 104 109 109 128 128 145 145 152 136 136 114 114 96 92 92 91 91 91 91 99 113 113 98 98 90 90 108 102 102 90 90 85 79 79 76 76 72 72 59 42 42 20 20 25 34 34 24 24 27 27 35 38 38 64 64 74 75 75 106 106 124 124 123 132 132 128 128 120 120 123 112 112 88 88 110 32767
54 54 82 82 97 97 77 64 64 45 45 36 32 32 32 32 31 31 32 31 31 27 27 28 29 29 30 30 32 32 28 31 31 36 36 30 30 36 50 50 44 44 33 27 27 26 26 41 41 66 76 76 72 72 62 61 61 77 77 84 84 86 77 77 69 69 69 69 86 80 80 66 66 65 55 55 54 54 69 69 77 88 88 88 88 91 119 119 130 130 126 126 136 125 125 115 115 102 94 94 83 83 74 74 89 102 102 97 97 72 72 73 74 74 67 67 71 68 68 77 77 66 66 48 35 35 19 19 20 18 18 14 14 15 15 19 27 27 46 46 49 64 64 78 78 86 86 86 83 83 79 79 81 81 70 90 90 72 72 83 32767
54 54 82 82 97 97 77 64 64 45 45 36 32 32 32 32 31 31 32 31 31 27 27 28 29 29 30 30 32 32 28 31 31 36 36 30 30 36 50 50 44 44 33 27 27 26 26 41 41 66 76 76 72 72 62 61 61 77 77 84 84 86 77 77 69 69 69 69 86 80 80 66 66 65 55 55 54 54 69 69 77 88 88 88 88 91 119 119 130 130 126 126 136 125 125 115 115 102 94 94 83 83 74 74 89 102 102 97 97 72 72 73 74 74 67 67 71 68 68 77 77 66 66 48 35 35 19 19 20 18 18 14 14 15 15 19 27 27 46 46 49 64 64 78 78 86 86 86 83 83 79 79 81 81 70 90 90 72 72 83 32767
94 94 98 98 82 82 67 55 55 43 43 37 31 31 32 32 34 34 30 30 30 27 27 29 28 28 28 28 27 27 28 29 29 29 29 30 30 29 34 34 31 31 27 26 26 31 31 46 46 61 59 59 50 50 50 66 66 72 72 67 67 69 60 60 61 61 61 73 73 60 60 49 66 65 55 55 54 54 69 69 77 88 88 88 88 91 119 119 130 130 126 126 136 125 125 115 115 102 94 94 83 83 74 74 89 102 102 97 97 72 72 73 74 74 67 67 71 68 68 77 77 66 66 48 35 35 19 19 20 18 18 14 14 15 15 19 27 27 46 46 49 64 64 78 78 86 86 86 83 83 79 79 81 81 70 90 90 72 72 83 32767
94 94 98 98 82 82 67 55 55 43 43 37 31 31 32 32 34 34 30 30 30 27 27 29 28 28 28 28 27 27 28 29 29 29 29 30 30 29 34 34 31 31 27 26 26 31 31 46 46 61 59 59 50 50 50 66 66 72 72 67 67 69 60 60 61 61 61 73 73 60 60 49 49 46 41 41 52 52 62 62 78 84 84 75 75 85 93 93 101 101 122 122 144 141 141 126 126 121 113 113 102 102 86 86 72 76 76 67 67 55 55 52 46 46 64 64 62 55 55 70 70 74 74 70 48 48 34 34 22 17 17 23 23 12 12 14 25 25 29 29 49 64 64 58 58 70 70 67 66 66 54 54 54 54 48 57 57 56 56 70 32767
94 94 98 98 82 82 67 55 55 43 43 37 31 31 32 32 34 34 30 30 30 27 27 29 28 28 28 28 27 27 28 29 29 29 29 30 30 29 34 34 31 31 27 26 26 31 31 46 46 61 59 59 50 50 50 66 66 72 72 67 67 69 60 60 61 61 61 73 73 60 60 49 49 46 41 41 52 52 62 62 78 84 84 75 75 85 93 93 101 101 122 122 144 141 141 126 126 121 113 113 102 102 86 86 72 76 76 67 67 55 55 52 46 46 64 64 62 55 55 70 70 74 74 70 48 48 34 34 22 17 17 23 23 12 12 14 25 25 29 29 49 64 64 58 58 70 70 67 66 66 54 54 54 54 48 57 57 56 56 70 32767
75 75 72 72 64 64 57 47 47 39 39 34 33 33 30 30 30 30 30 31 31 35 35 28 25 25 26 26 26 26 27 31 31 27 27 24 24 26 27 27 25 25 23 37 37 54 54 53 53 46 46 46 37 37 52 60 60 53 53 52 52 52 46 46 58 58 58 56 56 43 43 36 36 41 51 51 56 56 69 69 78 66 66 74 74 92 110 110 113 113 133 133 159 161 161 148 148 147 127 127 103 103 86 86 77 76 76 75 75 71 71 69 44 44 48 48 52 46 46 52 52 54 54 63 72 72 53 53 37 25 25 17 17 8 8 10 17 17 26 26 33 38 38 36 36 49 49 40 47 47 33 33 32 32 45 52 52 66 66 84 32767
75 75 72 72 64 64 57 47 47 39 39 34 33 33 30 30 30 30 30 31 31 35 35 28 25 25 26 26 26 26 27 31 31 27 27 24 24 26 27 27 25 25 23 37 37 54 54 53 53 46 46 46 37 37 52 60 60 53 53 52 52 52 46 46 58 58 58 56 56 43 43 36 36 41 51 51 56 56 69 69 78 66 66 74 74 92 110 110 113 113 133 133 159 161 161 148 148 147 127 127 103 103 86 86 77 76 76 75 75 71 71 69 44 44 48 48 52 46 46 52 52 54 54 63 72 72 53 53 37 25 25 17 17 8 8 10 17 17 26 26 33 38 38 36 36 49 49 40 47 47 33 33 32 32 45 52 52 66 66 84 32767
53 53 48 48 47 47 46 36 36 34 34 32 31 31 36 36 39 39 36 36 36 36 36 27 25 25 26 26 24 24 25 25 25 25 25 24 24 22 20 20 21 21 26 37 37 45 45 41 41 36 42 42 32 32 41 42 42 38 38 38 38 37 46 46 50 50 50 36 36 32 32 30 30 34 41 41 49 49 51 51 55 66 66 91 91 118 138 138 130 130 151 151 148 148 148 139 139 124 123 123 114 114 106 106 105 108 108 102 102 87 69 69 54 54 38 38 36 37 37 32 32 44 44 49 65 65 48 48 36 28 28 19 19 11 11 7 10 10 16 16 18 25 25 27 27 31 31 29 19 19 30 30 54 54 54 57 57 77 77 73 32767
53 53 48 48 47 47 46 36 36 34 34 32 31 31 36 36 39 39 36 36 36 36 36 27 25 25 26 26 24 24 25 25 25 25 25 24 24 22 20 20 21 21 26 37 37 45 45 41 41 36 42 42 32 32 41 42 42 38 38 38 38 37 46 46 50 50 50 36 36 32 32 30 30 34 41 41 49 49 51 51 55 66 66 91 91 118 138 138 130 130 151 151 148 148 148 139 139 124 123 123 114 114 106 106 105 108 108 102 102 87 69 69 54 54 38 38 36 37 37 32 32 44 44 49 65 65 48 48 36 28 28 19 19 11 11 7 10 10 16 16 18 25 25 27 27 31 31 29 19 19 30 30 54 54 54 57 57 77 77 73 32767
49 49 38 38 39 39 43 36 36 33 33 38 46 46 42 42 39 39 34 30 30 29 29 27 25 25 25 25 26 26 27 32 32 40 40 29 29 25 22 22 21 21 23 31 31 32 32 28 28 28 30 30 25 25 26 33 33 33 33 34 34 33 43 43 34 34 34 25 25 26 26 33 33 42 52 52 66 66 61 61 64 70 70 77 77 88 91 91 96 96 123 123 115 114 114 117 117 124 123 123 114 114 106 106 105 108 108 102 102 87 69 69 54 54 38 38 36 37 37 32 32 44 44 49 65 65 48 48 36 28 28 19 19 11 11 7 10 10 16 16 18 25 25 27 27 31 31 29 19 19 30 30 54 54 54 57 57 77 77 73 32767
49 49 38 38 39 39 43 36 36 33 33 38 46 46 42 42 39 39 34 30 30 29 29 27 25 25 25 25 26 26 27 32 32 40 40 29 29 25 22 22 21 21 23 31 31 32 32 28 28 28 30 30 25 25 26 33 33 33 33 34 34 33 43 43 34 34 34 25 25 26 26 33 33 42 52 52 66 66 61 61 64 70 70 77 77 88 91 91 96 96 123 123 115 114 114 117 117 108 104 104 109 109 112 112 109 106 106 92 92 77 61 61 63 63 51 51 30 24 24 20 20 26 26 28 34 34 30 30 23 22 22 25 25 15 15 9 13 13 13 13 17 23 23 20 20 23 23 12 23 23 39 39 48 48 35 48 48 58 58 45 32767
49 49 38 38 39 39 43 36 36 33 33 38 46 46 42 42 39 39 34 30 30 29 29 27 25 25 25 25 26 26 27 32 32 40 40 29 29 25 22 22 21 21 23 31 31 32 32 28 28 28 30 30 25 25 26 33 33 33 33 34 34 33 43 43 34 34 34 25 25 26 26 33 33 42 52 52 66 66 61 61 64 70 70 77 77 88 91 91 96 96 123 123 115 114 114 117 117 108 104 104 109 109 112 112 109 106 106 92 92 77 61 61 63 63 51 51 30 24 24 20 20 26 26 28 34 34 30 30 23 22 22 25 25 15 15 9 13 13 13 13 17 23 23 20 20 23 23 12 23 23 39 39 48 48 35 48 48 58 58 45 32767
41 41 38 38 41 41 44 45 45 53 53 55 45 45 35 35 32 32 32 30 30 27 27 29 29 29 32 32 31 31 37 38 38 37 37 31 31 26 23 23 22 22 22 21 21 21 21 21 21 20 22 22 20 20 21 21 21 25 25 29 29 36 39 39 26 26 26 23 23 27 27 36 36 47 60 60 58 58 61 61 57 53 53 62 62 65 70 70 86 86 101 101 95 86 86 94 94 89 100 100 91 91 84 84 86 104 104 98 98 79 61 61 50 50 45 45 41 34 34 23 23 16 16 16 17 17 17 17 16 22 22 32 32 27 27 21 18 18 12 12 13 9 9 4 4 2 2 0 0 0 5 5 7 7 6 10 10 6 6 2 32767
41 41 38 38 41 41 44 45 45 53 53 55 45 45 35 35 32 32 32 30 30 27 27 29 29 29 32 32 31 31 37 38 38 37 37 31 26 26 23 23 22 22 22 21 21 21 21 21 21 20 22 22 20 20 21 21 21 25 25 29 29 36 39 39 26 26 26 23 23 27 27 36 36 47 60 60 58 58 61 61 57 53 53 62 62 65 70 70 86 86 101 101 95 86 86 94 94 89 100 100 91 91 84 84 86 104 104 98 98 79 61 61 50 50 45 45 41 34 34 23 23 16 16 16 17 17 17 17 16 22 22 32 32 27 27 21 18 18 12 12 13 9 9 4 4 2 2 0 0 0 5 5 7 7 6 10 10 6 6 2 32767
49 49 41 41 50 50 54 55 55 51 51 45 44 44 41 41 35 35 30 31 31 27 27 34 40 40 42 42 44 44 36 31 31 28 28 26 23 23 22 22 23 23 25 22 22 18 18 19 19 19 20 20 19 19 18 23 23 27 27 28 28 28 22 22 21 21 21 25 25 33 33 40 40 52 57 57 50 50 46 46 45 46 46 51 51 59 76 76 90 90 95 95 76 68 68 74 74 75 81 81 81 81 82 82 71 76 76 81 81 74 55 55 46 46 42 42 29 25 25 21 21 17 17 19 11 11 9 9 11 9 9 13 13 25 25 43 33 33 17 17 1 0 0 0 0 0 0 0 0 0 0 0 0 0 0 0 0 0 0 0 32767
49 49 41 41 50 50 54 55 55 51 51 45 44 44 41 41 35 35 30 31 31 27 27 34 40 40 42 42 44 44 36 31 31 28 28 26 23 23 22 22 23 23 25 22 22 18 18 19 19 19 20 20 19 19 18 23 23 27 27 28 28 28 22 22 21 21 21 25 25 33 33 40 40 52 57 57 50 50 46 46 45 46 46 51 51 59 76 76 90 90 95 95 76 68 68 74 74 75 81 81 81 81 82 82 71 76 76 81 81 74 55 55 46 46 42 42 29 25 25 21 21 17 17 19 11 11 9 9 11 9 9 13 13 25 25 43 33 33 17 17 1 0 0 0 0 0 0 0 0 0 0 0 0 0 0 0 0 0 0 0 32767
55 55 42 42 50 50 63 65 65 58 58 52 45 45 38 38 37 37 46 50 50 53 53 49 50 50 46 46 45 45 39 35 35 28 28 25 22 22 22 22 22 22 23 22 22 21 21 18 18 18 18 18 17 17 17 18 18 21 21 19 19 17 19 19 24 24 24 31 31 37 37 43 43 46 45 45 42 42 34 34 34 38 38 44 44 55 62 62 81 81 99 99 87 63 63 50 50 58 62 62 78 78 70 70 69 57 57 68 68 76 71 71 56 56 42 42 37 37 37 37 37 29 29 19 11 11 9 9 11 9 9 13 13 25 25 43 33 33 17 17 1 0 0 0 0 0 0 0 0 0 0 0 0 0 0 0 0 0 0 0 32767
55 55 42 42 50 50 63 65 65 58 58 52 45 45 38 38 37 37 46 50 50 53 53 49 50 50 46 46 45 45 39 35 35 28 28 25 22 22 22 22 22 22 23 22 22 21 21 18 18 18 18 18 17 17 17 18 18 21 21 19 19 17 19 19 24 24 24 31 31 37 37 43 43 46 45 45 42 42 34 34 34 38 38 44 44 55 62 62 81 81 99 99 87 63 63 50 50 58 62 62 78 78 70 70 69 57 57 68 68 76 71 71 56 56 42 42 37 37 37 37 37 29 29 26 22 22 16 16 12 7 7 7 7 38 38 39 16 16 4 4 0 0 0 0 0 0 0 0 0 0 0 0 0 0 0 0 0 0 0 0 32767
47 47 51 51 50 50 63 65 65 58 58 52 45 45 38 38 37 37 46 50 50 53 53 49 50 50 46 46 45 45 39 35 35 28 28 25 22 22 22 22 22 22 23 22 22 21 21 18 18 18 18 18 17 17 17 18 18 21 21 19 19 17 19 19 24 24 24 31 31 37 37 43 43 46 45 45 42 42 34 34 34 38 38 44 44 55 62 62 81 81 99 99 87 63 63 50 50 58 62 62 78 78 70 70 69 57 57 68 68 76 71 71 56 56 42 42 37 37 37 37 37 29 29 26 22 22 16 16 12 7 7 7 7 38 38 39 16 16 4 4 0 0 0 0 0 0 0 0 0 0 0 0 0 0 0 0 0 0 0 0 32767
47 47 51 51 77 77 89 79 79 66 66 61 60 60 49 49 60 60 63 59 59 58 58 52 48 48 43 43 41 41 29 27 27 28 28 27 27 27 27 27 24 24 21 24 24 23 23 20 20 17 18 18 16 16 18 16 16 19 19 17 17 19 28 28 37 37 37 36 36 39 39 39 39 46 36 36 30 30 28 37 37 56 56 66 66 72 88 88 96 96 104 104 84 77 77 53 53 40 55 55 63 63 53 53 63 53 53 52 52 61 68 68 70 70 72 72 79 67 67 61 61 39 39 47 38 38 11 11 0 0 0 0 0 3 3 4 1 1 0 0 0 0 0 0 0 0 0 0 0 0 0 0 0 0 0 0 0 0 0 0 32767
47 47 51 51 77 89 89 79 79 66 66 61 60 60 49 49 60 60 63 59 59 58 58 52 48 48 43 43 41 41 29 27 27 28 28 27 27 27 27 27 24 24 21 24 24 23 23 20 20 17 18 18 16 16 18 16 16 19 19 17 17 19 28 28 37 37 37 36 36 39 39 39 39 46 36 36 30 30 28 37 37 56 56 66 66 72 88 88 96 96 104 104 84 77 77 53 53 40 55 55 63 63 53 53 63 53 53 52 52 61 68 68 70 70 72 72 79 67 67 61 61 39 39 47 38 38 11 11 0 0 0 0 0 3 3 4 1 1 0 0 0 0 0 0 0 0 0 0 0 0 0 0 0 0 0 0 0 0 0 0 32767
62 62 84 84 97 90 90 80 80 75 75 66 55 55 53 53 54 54 48 42 42 41 41 35 33 33 30 30 30 30 27 31 31 33 33 33 40 40 47 47 35 35 28 20 20 20 20 21 21 18 16 16 15 15 15 16 16 16 16 14 14 17 23 23 32 32 32 30 30 32 32 33 33 38 29 29 24 24 33 47 47 86 86 97 97 73 81 81 90 90 93 93 75 60 60 54 54 36 41 41 46 46 43 43 53 42 42 49 49 76 96 96 77 77 72 72 62 53 53 52 52 11 11 13 8 8 0 0 0 0 0 0 0 0 0 0 0 0 0 0 0 0 0 0 0 0 0 0 0 0 0 0 0 0 0 0 0 0 0 0 32767
62 62 84 84 97 90 90 80 80 75 75 66 55 55 53 53 54 54 48 42 42 41 41 35 33 33 30 30 30 30 27 31 31 33 33 33 40 40 47 47 35 35 28 20 20 20 20 21 21 18 16 16 15 15 15 16 16 16 16 14 14 17 23 23 32 32 32 30 30 32 32 33 33 38 29 29 24 24 33 47 47 86 86 97 97 73 81 81 90 90 93 93 75 60 60 54 54 36 41 41 46 46 43 43 53 42 42 49 49 76 96 96 77 77 72 72 62 53 53 52 52 11 11 13 8 8 0 0 0 0 0 0 0 0 0 0 0 0 0 0 0 0 0 0 0 0 0 0 0 0 0 0 0 0 0 0 0 0 0 0 32767
94 94 93 93 92 82 82 78 78 70 70 60 57 57 58 58 51 51 42 40 40 36 36 36 38 38 31 31 31 31 33 51 51 55 55 50 52 52 42 42 29 29 26 22 22 23 23 22 22 24 21 21 18 18 14 14 14 15 15 15 15 14 19 19 27 27 27 22 22 26 26 22 22 21 19 19 22 22 33 40 40 56 56 58 58 52 67 67 69 69 57 57 54 45 45 51 51 32 32 32 30 30 34 34 38 59 59 71 71 105 97 97 55 55 41 41 23 7 7 5 5 0 0 0 0 0 0 0 0 0 0 0 0 0 0 0 0 0 0 0 0 0 0 0 0 0 0 0 0 0 0 0 0 0 0 0 0 0 0 0 32767
94 94 93 93 92 82 82 78 78 70 70 60 57 57 58 58 51 51 42 40 40 36 36 36 38 38 31 31 31 31 33 51 51 55 55 50 52 52 42 42 29 29 26 22 22 23 23 22 22 24 21 21 18 18 14 14 14 15 15 15 15 14 19 19 27 27 27 22 22 26 26 22 22 21 19 19 22 22 33 40 40 56 56 58 58 52 67 67 69 69 57 57 54 45 45 51 51 32 32 32 30 30 34 34 38 59 59 71 71 105 97 97 55 55 41 41 23 7 7 5 5 0 0 0 0 0 0 0 0 0 0 0 0 0 0 0 0 0 0 0 0 0 0 0 0 0 0 0 0 0 0 0 0 0 0 0 0 0 0 0 32767
107 107 92 92 83 75 75 68 68 58 58 51 46 46 45 45 43 43 40 43 43 43 43 50 44 44 35 35 42 31 33 51 51 55 55 50 52 52 42 42 29 29 26 22 22 23 23 22 22 24 21 21 18 18 14 14 14 15 15 15 15 14 19 19 27 27 27 22 22 26 26 22 22 21 19 19 22 22 33 40 40 56 56 58 58 52 67 67 69 69 57 57 54 45 45 51 51 32 32 32 30 30 34 34 38 59 59 71 71 105 97 97 55 55 41 41 23 7 7 5 5 0 0 0 0 0 0 0 0 0 0 0 0 0 0 0 0 0 0 0 0 0 0 0 0 0 0 0 0 0 0 0 0 0 0 0 0 0 0 0 32767
107 107 92 92 83 75 75 68 68 58 58 51 46 46 45 45 43 43 40 43 43 43 43 50 44 44 35 35 42 42 58 70 70 62 62 45 42 42 32 32 26 26 24 25 25 29 29 33 33 29 21 21 21 21 18 16 16 15 15 13 13 12 16 16 25 25 25 18 18 21 21 22 22 17 15 15 18 18 25 31 31 31 31 47 47 61 75 75 65 65 53 53 46 32 32 36 36 26 28 28 39 39 56 56 58 80 80 106 106 103 71 71 48 48 28 28 4 0 0 0 0 0 0 0 0 0 0 0 0 0 0 0 0 0 0 0 0 0 0 0 0 0 0 0 0 0 0 0 0 0 0 0 0 0 0 0 0 0 0 0 32767
107 107 92 92 83 75 75 68 68 58 58 51 46 46 45 45 43 43 40 43 43 43 43 50 44 44 35 35 42 42 58 70 70 62 62 45 42 42 32 32 26 26 24 25 25 29 29 33 29 29 21 21 21 21 18 16 16 15 15 13 13 12 16 16 25 25 25 18 18 21 21 22 22 17 15 15 18 18 25 31 31 31 31 47 47 61 75 75 65 65 53 53 46 32 32 36 36 26 28 28 39 39 56 56 58 80 80 106 106 103 71 71 48 48 28 28 4 0 0 0 0 0 0 0 0 0 0 0 0 0 0 0 0 0 0 0 0 0 0 0 0 0 0 0 0 0 0 0 0 0 0 0 0 0 0 0 0 0 0 0 32767
108 108 95 95 78 67 67 56 56 52 52 56 58 58 62 62 52 52 69 79 79 63 63 57 43 43 46 46 49 49 65 82 82 71 71 40 33 33 36 36 38 38 40 40 40 43 43 43 28 28 21 21 17 17 17 17 17 15 15 13 13 13 12 12 14 14 14 15 15 16 16 16 16 14 14 14 14 14 19 23 23 35 35 42 42 56 63 63 66 66 52 52 34 28 28 20 20 30 62 62 72 72 78 78 86 98 98 80 80 64 49 49 38 38 23 23 1 0 0 0 0 0 0 0 0 0 0 0 0 0 0 0 0 0 0 0 0 0 0 0 0 0 0 0 0 0 0 0 0 0 0 0 0 0 0 0 0 0 0 0 32767
108 108 95 95 78 67 67 56 56 52 52 56 58 58 62 62 52 52 69 79 79 63 63 57 43 43 46 46 49 49 65 82 82 71 71 40 33 33 36 36 38 38 40 40 40 43 43 43 28 28 21 21 17 17 17 17 17 15 15 13 13 13 12 12 14 14 14 15 15 16 16 16 16 14 14 14 14 14 19 23 23 35 35 42 42 56 63 63 66 66 52 52 34 28 28 20 20 30 62 62 72 72 78 78 86 98 98 80 80 64 49 49 38 38 23 23 1 0 0 0 0 0 0 0 0 0 0 0 0 0 0 0 0 0 0 0 0 0 0 0 0 0 0 0 0 0 0 0 0 0 0 0 0 0 0 0 0 0 0 0 32767
86 86 77 77 67 59 59 71 71 91 91 88 72 72 70 70 64 64 88 88 88 71 71 58 55 55 66 66 74 74 72 59 59 46 46 39 44 44 66 66 71 71 67 73 73 67 67 49 37 37 24 24 18 18 15 14 14 13 13 14 14 14 12 12 13 13 13 13 13 11 11 13 13 12 12 12 13 13 20 27 27 37 37 44 44 53 50 50 46 46 41 41 30 19 19 21 21 44 74 74 107 107 119 119 106 105 105 105 105 100 65 65 20 20 5 5 0 0 0 0 0 0 0 0 0 0 0 0 0 0 0 0 0 0 0 0 0 0 0 0 0 0 0 0 0 0 0 0 0 0 0 0 0 0 0 0 0 0 0 0 32767
86 86 77 77 67 59 59 71 71 91 91 88 72 72 70 70 64 64 88 88 88 71 71 58 55 55 66 66 74 74 72 59 59 46 46 39 44 44 66 66 71 71 67 73 73 67 67 49 37 37 24 24 18 18 15 14 14 13 13 14 14 14 12 12 13 13 13 13 13 11 11 13 13 12 12 12 13 13 20 27 27 37 37 44 44 53 50 50 46 46 41 41 30 19 19 21 21 44 74 74 107 107 119 119 106 105 105 105 105 100 65 65 20 20 5 5 0 0 0 0 0 0 0 0 0 0 0 0 0 0 0 0 0 0 0 0 0 0 0 0 0 0 0 0 0 0 0 0 0 0 0 0 0 0 0 0 0 0 0 0 32767
78 78 75 75 86 93 93 128 128 145 145 103 91 91 80 80 71 71 90 103 103 94 94 85 76 76 70 70 62 62 55 51 51 42 42 47 58 58 74 74 102 102 107 120 120 118 118 88 54 54 43 43 31 31 21 14 14 13 13 14 14 14 12 12 13 13 13 13 13 11 11 13 13 12 12 12 13 13 20 27 27 37 37 44 44 53 50 50 46 46 41 41 30 19 19 21 21 44 74 74 107 107 119 119 106 105 105 105 105 100 65 65 20 20 5 5 0 0 0 0 0 0 0 0 0 0 0 0 0 0 0 0 0 0 0 0 0 0 0 0 0 0 0 0 0 0 0 0 0 0 0 0 0 0 0 0 0 0 0 0 32767
78 78 75 75 86 93 93 128 128 145 145 103 91 91 80 80 71 90 90 103 103 94 94 85 76 76 70 70 62 62 55 51 51 42 42 47 58 58 74 74 102 102 107 120 120 118 118 88 54 54 43 43 31 31 21 14 14 12 12 11 11 12 11 11 10 10 10 11 11 11 11 11 11 8 10 10 10 10 18 25 25 35 35 42 42 42 38 38 35 35 31 31 31 22 22 27 27 50 83 83 122 122 91 91 55 45 45 42 42 31 9 9 0 0 0 0 0 0 0 0 0 0 0 0 0 0 0 0 0 0 0 0 0 0 0 0 0 0 0 0 0 0 0 0 0 0 0 0 0 0 0 0 0 0 0 0 0 0 0 0 32767
78 78 75 75 86 93 93 128 128 145 145 103 91 91 80 80 71 90 90 103 103 94 94 85 76 76 70 70 62 62 55 51 51 42 42 47 58 58 74 74 102 102 107 120 120 118 118 88 54 54 43 43 31 31 21 14 14 12 12 11 11 12 11 11 10 10 10 11 11 11 11 11 11 8 10 10 10 10 18 25 25 35 35 42 42 42 38 38 35 35 31 31 31 22 22 27 27 50 83 83 122 122 91 91 55 45 45 42 42 31 9 9 0 0 0 0 0 0 0 0 0 0 0 0 0 0 0 0 0 0 0 0 0 0 0 0 0 0 0 0 0 0 0 0 0 0 0 0 0 0 0 0 0 0 0 0 0 0 0 0 32767
96 96 98 98 126 146 146 177 177 172 172 127 123 123 112 112 90 108 108 128 128 122 122 96 83 83 79 79 61 61 53 56 56 50 50 60 65 65 78 78 99 99 100 89 89 103 103 112 99 99 97 97 70 70 46 28 28 16 16 12 12 12 11 11 10 10 10 10 10 10 10 10 10 8 10 10 12 12 17 21 21 24 24 25 25 31 34 34 29 29 25 25 21 18 18 35 35 49 88 88 110 110 81 81 57 39 39 15 15 0 0 0 0 0 0 0 0 0 0 0 0 0 0 0 0 0 0 0 0 0 0 0 0 0 0 0 0 0 0 0 0 0 0 0 0 0 0 0 0 0 0 0 0 0 0 0 0 0 0 0 32767
96 96 98 98 126 146 146 177 177 172 172 127 123 123 112 112 90 108 108 128 128 122 122 96 83 83 79 79 61 61 53 56 56 50 50 60 65 65 78 78 99 99 100 89 89 103 103 112 99 99 97 97 70 70 46 28 28 16 16 12 12 12 11 11 10 10 10 10 10 10 10 10 10 8 10 10 12 12 17 21 21 24 24 25 25 31 34 34 29 29 25 25 21 18 18 35 35 49 88 88 110 110 81 81 57 39 39 15 15 0 0 0 0 0 0 0 0 0 0 0 0 0 0 0 0 0 0 0 0 0 0 0 0 0 0 0 0 0 0 0 0 0 0 0 0 0 0 0 0 0 0 0 0 0 0 0 0 0 0 0 32767
134 134 120 120 158 194 194 238 238 220 220 198 175 175 132 132 123 147 147 149 149 133 133 114 103 103 84 84 70 70 68 70 70 75 75 85 88 88 81 81 79 79 76 67 67 62 62 64 66 66 84 84 94 94 62 41 41 23 23 16 16 12 11 11 9 9 9 8 8 10 10 7 7 8 11 11 15 15 16 16 16 18 18 22 22 25 29 29 34 34 27 16 16 16 16 22 22 23 18 18 13 13 30 30 23 11 11 2 2 0 0 0 0 0 0 0 0 0 0 0 0 0 0 0 0 0 0 0 0 0 0 0 0 0 0 0 0 0 0 0 0 0 0 0 0 0 0 0 0 0 0 0 0 0 0 0 0 0 0 0 32767
134 134 120 120 158 194 194 238 238 220 220 198 175 175 132 132 123 147 147 149 149 133 133 114 103 103 84 84 70 70 68 70 70 75 75 85 88 88 81 81 79 79 76 67 67 62 62 64 66 66 84 84 94 94 62 41 41 23 23 16 16 12 11 11 9 9 9 8 8 10 10 7 7 8 11 11 15 15 16 16 16 18 18 22 22 25 29 29 34 34 27 16 16 16 16 22 22 23 18 18 13 13 30 30 23 11 11 2 2 0 0 0 0 0 0 0 0 0 0 0 0 0 0 0 0 0 0 0 0 0 0 0 0 0 0 0 0 0 0 0 0 0 0 0 0 0 0 0 0 0 0 0 0 0 0 0 0 0 0 0 32767
151 151 167 167 184 223 223 274 274 286 286 274 229 229 183 183 175 174 174 165 165 156 156 134 123 123 114 114 99 99 101 101 101 102 102 99 82 82 74 74 71 71 63 59 59 47 47 42 39 39 38 38 47 47 43 38 38 26 26 22 22 14 10 10 10 10 10 10 10 12 12 10 10 8 8 8 12 12 18 19 16 18 18 22 22 25 29 29 34 34 27 16 16 16 16 22 22 23 18 18 13 13 30 30 23 11 11 2 2 0 0 0 0 0 0 0 0 0 0 0 0 0 0 0 0 0 0 0 0 0 0 0 0 0 0 0 0 0 0 0 0 0 0 0 0 0 0 0 0 0 0 0 0 0 0 0 0 0 0 0 32767
151 151 167 167 184 223 223 274 274 286 286 274 229 229 183 183 175 174 174 165 165 156 156 134 123 123 114 114 99 99 101 101 101 102 102 99 82 82 74 74 71 71 63 59 59 47 47 42 39 39 38 38 47 47 43 38 38 26 26 22 22 14 10 10 10 10 10 10 10 12 12 10 10 8 8 8 12 12 18 19 19 14 14 16 16 23 31 31 38 38 36 21 21 14 14 9 9 3 1 1 2 2 3 3 9 0 0 0 0 0 0 0 0 0 0 0 0 0 0 0 0 0 0 0 0 0 0 0 0 0 0 0 0 0 0 0 0 0 0 0 0 0 0 0 0 0 0 0 0 0 0 0 0 0 0 0 0 0 0 0 32767
151 151 167 167 184 223 223 274 274 286 286 274 229 229 183 183 175 174 174 165 165 156 156 134 123 123 114 114 99 99 101 101 101 102 102 99 82 82 74 74 71 71 63 59 59 47 47 42 39 39 38 38 47 47 43 38 38 26 26 22 22 14 10 10 10 10 10 10 10 12 12 10 10 8 8 8 12 12 18 19 19 14 14 16 16 23 31 31 38 38 36 21 21 14 14 9 9 3 1 1 2 2 3 3 9 0 0 0 0 0 0 0 0 0 0 0 0 0 0 0 0 0 0 0 0 0 0 0 0 0 0 0 0 0 0 0 0 0 0 0 0 0 0 0 0 0 0 0 0 0 0 0 0 0 0 0 0 0 0 0 32767
186 186 207 207 248 267 267 290 290 319 319 312 285 285 254 254 214 191 191 172 172 162 162 168 156 156 138 138 118 118 117 107 107 109 109 92 77 77 69 69 61 61 59 54 54 52 52 55 47 47 33 33 28 28 24 21 21 18 18 17 17 13 11 11 10 10 10 10 10 10 10 10 10 8 7 7 10 10 14 17 17 22 22 25 25 34 45 45 46 46 38 23 23 9 9 0 0 0 0 0 0 0 0 0 0 0 0 0 0 0 0 0 0 0 0 0 0 0 0 0 0 0 0 0 0 0 0 0 0 0 0 0 0 0 0 0 0 0 0 0 0 0 0 0 0 0 0 0 0 0 0 0 0 0 0 0 0 0 0 0 32767
186 186 207 207 248 267 267 290 290 319 319 312 285 285 254 254 214 191 191 172 172 162 162 168 156 156 138 138 118 118 117 107 107 109 109 92 77 77 69 69 61 61 59 54 54 52 52 55 47 47 33 33 28 28 24 21 21 18 18 17 13 13 11 11 10 10 10 10 10 10 10 10 10 8 7 7 10 10 14 17 17 22 22 25 25 34 45 45 46 46 38 23 23 9 9 0 0 0 0 0 0 0 0 0 0 0 0 0 0 0 0 0 0 0 0 0 0 0 0 0 0 0 0 0 0 0 0 0 0 0 0 0 0 0 0 0 0 0 0 0 0 0 0 0 0 0 0 0 0 0 0 0 0 0 0 0 0 0 0 0 32767
225 225 230 230 242 268 268 262 262 266 266 278 303 303 276 276 241 197 197 161 161 146 146 133 138 138 128 128 105 105 91 83 83 84 84 79 82 82 72 72 64 64 52 49 49 52 52 52 54 54 47 47 35 35 26 23 23 17 17 15 11 11 10 10 8 8 8 10 10 8 8 8 8 9 7 7 10 10 16 27 27 32 32 26 26 16 17 17 15 15 10 5 5 1 1 0 0 0 0 0 0 0 0 0 0 0 0 0 0 0 0 0 0 0 0 0 0 0 0 0 0 0 0 0 0 0 0 0 0 0 0 0 0 0 0 0 0 0 0 0 0 0 0 0 0 0 0 0 0 0 0 0 0 0 0 0 0 0 0 0 32767
225 225 230 230 242 268 268 262 262 266 266 278 303 303 276 276 241 197 197 161 161 146 146 133 138 138 128 128 105 105 91 83 83 84 84 79 82 82 72 72 64 64 52 49 49 52 52 52 54 54 47 47 35 35 26 23 23 17 17 15 11 11 10 10 8 8 8 10 10 8 8 8 8 9 7 7 10 10 16 27 27 32 32 26 26 16 17 17 15 15 10 5 5 1 1 0 0 0 0 0 0 0 0 0 0 0 0 0 0 0 0 0 0 0 0 0 0 0 0 0 0 0 0 0 0 0 0 0 0 0 0 0 0 0 0 0 0 0 0 0 0 0 0 0 0 0 0 0 0 0 0 0 0 0 0 0 0 0 0 0 32767
193 193 200 200 233 260 260 220 220 215 215 235 289 289 300 300 257 197 197 135 135 114 114 102 105 105 105 105 94 94 80 71 71 67 67 72 67 67 59 59 62 62 52 41 41 41 41 42 50 50 40 40 30 30 23 17 17 19 19 18 13 13 10 10 8 8 8 7 7 9 9 6 6 8 7 7 9 9 9 10 10 11 11 10 10 9 9 9 9 9 8 0 0 0 0 0 0 0 0 0 0 0 0 0 0 0 0 0 0 0 0 0 0 0 0 0 0 0 0 0 0 0 0 0 0 0 0 0 0 0 0 0 0 0 0 0 0 0 0 0 0 0 0 0 0 0 0 0 0 0 0 0 0 0 0 0 0 0 0 0 32767
193 193 200 200 233 260 260 220 220 215 215 235 289 289 300 300 257 197 197 135 135 114 114 102 105 105 105 105 94 94 80 71 71 67 67 72 67 67 59 59 62 62 52 41 41 41 41 42 50 50 40 40 30 30 23 17 17 19 19 18 13 13 10 10 8 8 8 7 7 9 9 6 6 8 7 7 9 9 9 10 10 11 11 10 10 9 9 9 9 9 8 0 0 0 0 0 0 0 0 0 0 0 0 0 0 0 0 0 0 0 0 0 0 0 0 0 0 0 0 0 0 0 0 0 0 0 0 0 0 0 0 0 0 0 0 0 0 0 0 0 0 0 0 0 0 0 0 0 0 0 0 0 0 0 0 0 0 0 0 0 32767
193 193 200 200 233 260 260 220 220 215 215 235 289 289 300 300 257 197 197 135 135 114 114 102 105 105 105 105 94 80 80 71 71 67 67 72 67 67 59 59 62 62 52 41 41 41 41 42 50 50 40 40 30 30 23 17 17 19 19 18 13 13 10 10 8 8 8 7 7 9 9 6 6 8 7 7 9 9 9 10 10 11 11 10 10 9 9 9 9 9 8 0 0 0 0 0 0 0 0 0 0 0 0 0 0 0 0 0 0 0 0 0 0 0 0 0 0 0 0 0 0 0 0 0 0 0 0 0 0 0 0 0 0 0 0 0 0 0 0 0 0 0 0 0 0 0 0 0 0 0 0 0 0 0 0 0 0 0 0 0 32767
171 171 186 186 211 207 207 193 193 169 169 183 235 235 263 263 252 207 207 168 168 130 130 110 93 93 87 87 80 75 75 65 65 55 55 64 57 57 49 49 56 56 51 48 48 38 38 39 41 41 29 29 25 25 17 12 12 12 12 13 12 12 10 10 7 7 7 8 8 7 7 7 7 9 7 7 6 6 6 4 4 6 6 7 7 9 11 11 9 9 1 0 0 0 0 0 0 0 0 0 0 0 0 0 0 0 0 0 0 0 0 0 0 0 0 0 0 0 0 0 0 0 0 0 0 0 0 0 0 0 0 0 0 0 0 0 0 0 0 0 0 0 0 0 0 0 0 0 0 0 0 0 0 0 0 0 0 0 0 0 32767
171 171 186 186 211 207 207 193 193 169 169 183 235 235 263 263 252 207 207 168 168 130 130 110 93 93 87 87 80 75 75 65 65 55 55 64 57 57 49 49 56 56 51 48 48 38 38 39 41 41 29 29 25 25 17 12 12 12 12 13 12 12 10 10 7 7 7 8 8 7 7 7 7 9 7 7 6 6 6 4 4 6 6 7 7 9 11 11 9 9 1 0 0 0 0 0 0 0 0 0 0 0 0 0 0 0 0 0 0 0 0 0 0 0 0 0 0 0 0 0 0 0 0 0 0 0 0 0 0 0 0 0 0 0 0 0 0 0 0 0 0 0 0 0 0 0 0 0 0 0 0 0 0 0 0 0 0 0 0 0 32767
154 154 174 174 176 151 151 150 150 125 125 155 191 191 216 216 210 239 239 175 175 132 132 115 95 95 73 73 69 62 62 63 63 53 53 52 49 49 45 45 50 50 47 42 42 31 31 33 35 35 24 24 18 18 19 20 20 26 26 29 17 17 9 9 7 7 7 7 7 7 7 6 6 6 5 5 5 5 5 4 4 5 5 5 5 6 9 9 8 8 0 0 0 0 0 0 0 0 0 0 0 0 0 0 0 0 0 0 0 0 0 0 0 0 0 0 0 0 0 0 0 0 0 0 0 0 0 0 0 0 0 0 0 0 0 0 0 0 0 0 0 0 0 0 0 0 0 0 0 0 0 0 0 0 0 0 0 0 0 0 32767
154 154 174 174 176 151 151 150 150 125 125 155 191 191 216 216 210 239 239 175 175 132 132 115 95 95 73 73 69 62 62 63 63 53 53 52 49 49 45 45 50 50 47 42 42 31 31 33 35 35 24 24 18 18 19 20 20 26 26 29 17 17 9 9 7 7 7 7 7 7 7 6 6 6 5 5 5 5 5 4 4 5 5 5 5 6 9 9 8 8 0 0 0 0 0 0 0 0 0 0 0 0 0 0 0 0 0 0 0 0 0 0 0 0 0 0 0 0 0 0 0 0 0 0 0 0 0 0 0 0 0 0 0 0 0 0 0 0 0 0 0 0 0 0 0 0 0 0 0 0 0 0 0 0 0 0 0 0 0 0 32767
168 168 189 189 167 120 120 115 115 99 99 138 183 183 174 174 189 233 233 200 200 150 150 120 97 97 82 82 74 67 67 54 54 45 45 40 39 39 39 39 35 35 38 34 34 28 28 32 31 31 24 24 26 26 27 26 26 34 34 28 22 22 26 26 9 9 9 7 7 7 7 6 6 5 6 6 5 5 5 2 2 4 4 6 6 9 11 11 2 2 0 0 0 0 0 0 0 0 0 0 0 0 0 0 0 0 0 0 0 0 0 0 0 0 0 0 0 0 0 0 0 0 0 0 0 0 0 0 0 0 0 0 0 0 0 0 0 0 0 0 0 0 0 0 0 0 0 0 0 0 0 0 0 0 0 0 0 0 0 0 32767
168 168 189 189 167 120 120 115 115 99 99 138 183 183 174 174 189 233 233 200 200 150 150 120 97 97 82 82 74 67 67 54 54 45 45 40 39 39 39 39 35 35 38 34 34 28 28 32 31 31 24 24 26 26 27 26 26 34 34 28 22 22 26 26 9 9 9 7 7 7 7 6 6 5 6 6 5 5 5 2 2 4 4 6 6 9 11 11 2 2 0 0 0 0 0 0 0 0 0 0 0 0 0 0 0 0 0 0 0 0 0 0 0 0 0 0 0 0 0 0 0 0 0 0 0 0 0 0 0 0 0 0 0 0 0 0 0 0 0 0 0 0 0 0 0 0 0 0 0 0 0 0 0 0 0 0 0 0 0 0 32767
105 105 115 115 149 132 132 89 89 83 83 126 183 183 174 174 189 233 233 200 200 150 150 120 97 97 82 82 74 67 67 54 54 45 45 40 39 39 39 39 35 35 38 34 34 28 28 32 31 31 24 24 26 26 27 26 26 34 34 28 22 22 26 26 9 9 9 7 7 7 7 6 6 5 6 6 5 5 5 2 2 4 4 6 6 9 11 11 2 2 0 0 0 0 0 0 0 0 0 0 0 0 0 0 0 0 0 0 0 0 0 0 0 0 0 0 0 0 0 0 0 0 0 0 0 0 0 0 0 0 0 0 0 0 0 0 0 0 0 0 0 0 0 0 0 0 0 0 0 0 0 0 0 0 0 0 0 0 0 0 32767
105 105 115 115 149 132 132 89 89 83 83 126 167 167 133 133 166 168 168 193 193 177 177 149 99 99 78 78 65 55 55 51 51 48 48 41 37 37 35 35 31 31 28 25 25 24 24 29 29 29 33 33 33 33 24 16 16 15 15 13 11 11 9 9 6 6 6 5 5 5 5 3 3 4 5 5 4 4 5 4 4 4 4 5 5 11 7 7 0 0 0 0 0 0 0 0 0 0 0 0 0 0 0 0 0 0 0 0 0 0 0 0 0 0 0 0 0 0 0 0 0 0 0 0 0 0 0 0 0 0 0 0 0 0 0 0 0 0 0 0 0 0 0 0 0 0 0 0 0 0 0 0 0 0 0 0 0 0 0 0 32767
105 105 115 115 149 132 132 89 89 83 83 126 167 167 133 133 166 168 168 193 193 177 177 149 99 99 78 78 65 55 55 51 51 48 48 41 37 37 35 35 31 31 28 25 25 24 24 29 29 29 33 33 33 33 24 16 16 15 15 13 11 11 9 9 6 6 6 5 5 5 5 3 3 4 5 5 4 4 5 4 4 4 4 5 5 11 7 7 0 0 0 0 0 0 0 0 0 0 0 0 0 0 0 0 0 0 0 0 0 0 0 0 0 0 0 0 0 0 0 0 0 0 0 0 0 0 0 0 0 0 0 0 0 0 0 0 0 0 0 0 0 0 0 0 0 0 0 0 0 0 0 0 0 0 0 0 0 0 0 0 32767
121 121 84 84 79 69 69 76 76 106 106 124 134 134 110 110 139 110 110 126 126 125 125 125 105 105 82 82 82 82 82 81 81 72 72 65 61 61 54 54 57 57 53 34 34 24 24 19 20 20 21 21 27 27 31 20 20 13 13 6 6 6 5 5 5 5 5 4 4 4 4 4 4 4 4 4 4 4 4 4 4 4 4 6 6 7 2 2 0 0 0 0 0 0 0 0 0 0 0 0 0 0 0 0 0 0 0 0 0 0 0 0 0 0 0 0 0 0 0 0 0 0 0 0 0 0 0 0 0 0 0 0 0 0 0 0 0 0 0 0 0 0 0 0 0 0 0 0 0 0 0 0 0 0 0 0 0 0 0 0 32767
121 121 84 84 79 69 69 76 76 106 106 124 134 134 110 110 139 110 110 126 126 125 125 125 105 105 82 82 82 82 82 81 81 72 72 65 61 61 54 54 57 57 53 34 34 24 24 19 20 20 21 21 27 27 31 20 20 13 13 6 6 6 5 5 5 5 5 4 4 4 4 4 4 4 4 4 4 4 4 4 4 4 4 6 6 7 2 2 0 0 0 0 0 0 0 0 0 0 0 0 0 0 0 0 0 0 0 0 0 0 0 0 0 0 0 0 0 0 0 0 0 0 0 0 0 0 0 0 0 0 0 0 0 0 0 0 0 0 0 0 0 0 0 0 0 0 0 0 0 0 0 0 0 0 0 0 0 0 0 0 32767
115 115 115 115 89 58 58 65 65 76 76 93 104 104 78 78 95 83 83 78 78 85 85 111 130 130 112 112 138 128 128 153 153 137 137 123 97 97 117 117 109 109 70 46 46 31 31 34 24 24 19 19 23 23 21 18 18 8 8 4 4 4 4 4 4 4 4 4 4 4 4 3 3 4 3 3 3 3 2 3 3 4 4 4 4 6 0 0 0 0 0 0 0 0 0 0 0 0 0 0 0 0 0 0 0 0 0 0 0 0 0 0 0 0 0 0 0 0 0 0 0 0 0 0 0 0 0 0 0 0 0 0 0 0 0 0 0 0 0 0 0 0 0 0 0 0 0 0 0 0 0 0 0 0 0 0 0 0 0 0 32767
115 115 115 115 89 58 58 65 65 76 76 93 104 104 78 78 95 83 83 78 78 85 85 111 130 130 112 112 138 128 128 153 153 137 137 123 97 97 117 117 109 109 70 46 46 31 31 34 24 24 19 19 23 23 21 18 18 8 8 4 4 4 4 4 4 4 4 4 4 4 4 3 3 4 3 3 3 3 2 3 3 4 4 4 4 6 0 0 0 0 0 0 0 0 0 0 0 0 0 0 0 0 0 0 0 0 0 0 0 0 0 0 0 0 0 0 0 0 0 0 0 0 0 0 0 0 0 0 0 0 0 0 0 0 0 0 0 0 0 0 0 0 0 0 0 0 0 0 0 0 0 0 0 0 0 0 0 0 0 0 32767
141 141 115 115 104 87 87 63 63 49 49 62 79 79 66 66 52 67 67 109 109 142 142 152 174 174 175 175 187 176 176 187 187 186 186 155 151 151 117 117 109 109 70 46 46 31 31 34 24 24 19 19 23 23 21 18 18 8 8 4 4 4 4 4 4 4 4 4 4 4 4 3 4 4 3 3 3 3 2 3 3 4 4 4 4 6 0 0 0 0 0 0 0 0 0 0 0 0 0 0 0 0 0 0 0 0 0 0 0 0 0 0 0 0 0 0 0 0 0 0 0 0 0 0 0 0 0 0 0 0 0 0 0 0 0 0 0 0 0 0 0 0 0 0 0 0 0 0 0 0 0 0 0 0 0 0 0 0 0 0 32767
141 141 115 115 104 87 87 63 63 49 49 62 79 79 66 66 52 67 67 109 109 142 142 152 174 174 175 175 187 176 176 187 187 186 186 155 151 151 165 165 122 122 74 47 47 26 26 35 22 22 17 17 25 25 20 8 8 5 5 4 4 4 3 3 3 3 3 4 4 3 3 3 3 3 3 3 3 3 3 2 2 3 3 4 4 1 0 0 0 0 0 0 0 0 0 0 0 0 0 0 0 0 0 0 0 0 0 0 0 0 0 0 0 0 0 0 0 0 0 0 0 0 0 0 0 0 0 0 0 0 0 0 0 0 0 0 0 0 0 0 0 0 0 0 0 0 0 0 0 0 0 0 0 0 0 0 0 0 0 0 32767
141 141 115 115 104 87 87 63 63 49 49 62 79 79 66 66 52 67 67 109 109 142 142 152 174 174 175 175 187 176 176 187 187 186 186 155 151 151 165 165 122 74 74 47 47 26 26 35 22 22 17 17 25 25 20 8 8 5 5 4 4 4 3 3 3 3 3 4 4 3 3 3 3 3 3 3 3 3 3 2 2 3 3 4 4 1 0 0 0 0 0 0 0 0 0 0 0 0 0 0 0 0 0 0 0 0 0 0 0 0 0 0 0 0 0 0 0 0 0 0 0 0 0 0 0 0 0 0 0 0 0 0 0 0 0 0 0 0 0 0 0 0 0 0 0 0 0 0 0 0 0 0 0 0 0 0 0 0 0 0 32767
159 159 136 136 99 85 85 73 73 73 73 46 44 44 49 49 75 108 108 145 145 162 162 147 137 137 156 156 174 191 191 162 162 145 145 121 119 119 125 125 99 69 69 57 57 28 28 19 21 21 18 18 16 16 9 5 5 5 5 4 3 3 3 3 3 3 3 2 2 2 2 2 2 2 2 2 2 2 2 3 3 4 4 1 1 0 0 0 0 0 0 0 0 0 0 0 0 0 0 0 0 0 0 0 0 0 0 0 0 0 0 0 0 0 0 0 0 0 0 0 0 0 0 0 0 0 0 0 0 0 0 0 0 0 0 0 0 0 0 0 0 0 0 0 0 0 0 0 0 0 0 0 0 0 0 0 0 0 0 0 32767
159 159 136 136 99 85 85 73 73 73 46 46 44 44 49 49 75 108 108 145 145 162 162 147 137 137 156 156 174 191 191 162 162 145 145 121 119 119 125 125 99 69 69 57 57 28 28 19 21 21 18 18 16 16 9 5 5 5 5 4 3 3 3 3 3 3 3 2 2 2 2 2 2 2 2 2 2 2 2 3 3 4 4 1 1 0 0 0 0 0 0 0 0 0 0 0 0 0 0 0 0 0 0 0 0 0 0 0 0 0 0 0 0 0 0 0 0 0 0 0 0 0 0 0 0 0 0 0 0 0 0 0 0 0 0 0 0 0 0 0 0 0 0 0 0 0 0 0 0 0 0 0 0 0 0 0 0 0 0 0 32767
117 117 124 124 126 123 123 120 120 104 64 64 50 50 38 38 66 93 93 119 119 114 114 98 103 103 128 128 139 148 148 136 136 161 161 132 85 85 84 84 86 48 48 28 28 17 17 12 14 14 19 19 8 8 7 8 8 5 5 4 4 4 2 2 2 2 2 1 1 1 1 2 2 2 2 2 2 2 2 3 3 1 1 0 0 0 0 0 0 0 0 0 0 0 0 0 0 0 0 0 0 0 0 0 0 0 0 0 0 0 0 0 0 0 0 0 0 0 0 0 0 0 0 0 0 0 0 0 0 0 0 0 0 0 0 0 0 0 0 0 0 0 0 0 0 0 0 0 0 0 0 0 0 0 0 0 0 0 0 0 32767
117 117 124 124 126 123 123 120 120 104 64 64 50 50 38 38 66 93 93 119 119 114 114 98 103 103 128 128 139 148 148 136 136 161 161 132 85 85 84 84 86 48 48 28 28 17 17 12 14 14 19 19 8 8 7 8 8 5 5 4 4 4 2 2 2 2 2 1 1 1 1 2 2 2 2 2 2 2 2 3 3 1 1 0 0 0 0 0 0 0 0 0 0 0 0 0 0 0 0 0 0 0 0 0 0 0 0 0 0 0 0 0 0 0 0 0 0 0 0 0 0 0 0 0 0 0 0 0 0 0 0 0 0 0 0 0 0 0 0 0 0 0 0 0 0 0 0 0 0 0 0 0 0 0 0 0 0 0 0 0 32767
96 96 130 130 173 181 181 149 149 113 107 107 68 68 31 31 58 76 76 75 75 70 70 77 92 92 109 109 102 84 84 105 105 108 108 108 88 88 56 56 48 23 23 8 8 6 6 10 12 12 13 13 8 8 8 6 6 5 5 4 5 5 4 2 2 2 2 1 1 1 1 2 2 2 2 2 2 2 2 3 3 1 1 0 0 0 0 0 0 0 0 0 0 0 0 0 0 0 0 0 0 0 0 0 0 0 0 0 0 0 0 0 0 0 0 0 0 0 0 0 0 0 0 0 0 0 0 0 0 0 0 0 0 0 0 0 0 0 0 0 0 0 0 0 0 0 0 0 0 0 0 0 0 0 0 0 0 0 0 0 32767
96 96 130 130 173 181 181 149 149 113 107 107 68 68 31 31 58 76 76 75 75 70 70 77 92 92 109 109 102 84 84 105 105 108 108 108 88 88 56 56 48 23 23 8 8 6 6 10 12 12 13 13 8 8 8 6 6 5 5 4 5 5 4 4 3 3 3 1 1 1 1 1 2 2 1 1 1 1 0 0 0 0 0 0 0 0 0 0 0 0 0 0 0 0 0 0 0 0 0 0 0 0 0 0 0 0 0 0 0 0 0 0 0 0 0 0 0 0 0 0 0 0 0 0 0 0 0 0 0 0 0 0 0 0 0 0 0 0 0 0 0 0 0 0 0 0 0 0 0 0 0 0 0 0 0 0 0 0 0 0 32767
96 96 130 130 173 181 181 149 149 113 107 107 68 68 31 31 58 76 76 75 75 70 70 77 92 92 109 109 102 84 84 105 105 108 108 108 88 88 56 56 48 23 23 8 8 6 6 10 12 12 13 13 8 8 8 6 6 5 5 4 5 5 4 4 3 3 3 1 1 1 1 1 2 2 1 1 1 1 0 0 0 0 0 0 0 0 0 0 0 0 0 0 0 0 0 0 0 0 0 0 0 0 0 0 0 0 0 0 0 0 0 0 0 0 0 0 0 0 0 0 0 0 0 0 0 0 0 0 0 0 0 0 0 0 0 0 0 0 0 0 0 0 0 0 0 0 0 0 0 0 0 0 0 0 0 0 0 0 0 0 32767
124 124 169 169 189 216 216 180 180 131 94 94 75 75 53 53 30 29 29 42 42 56 56 70 61 61 92 92 118 75 75 75 75 89 89 52 47 47 49 49 17 10 10 6 6 6 6 10 9 9 9 9 9 9 7 6 6 5 5 4 2 2 1 1 0 0 0 0 0 0 0 0 0 0 0 0 0 0 0 0 0 0 0 0 0 0 0 0 0 0 0 0 0 0 0 0 0 0 0 0 0 0 0 0 0 0 0 0 0 0 0 0 0 0 0 0 0 0 0 0 0 0 0 0 0 0 0 0 0 0 0 0 0 0 0 0 0 0 0 0 0 0 0 0 0 0 0 0 0 0 0 0 0 0 0 0 0 0 0 0 32767
124 124 169 169 189 216 216 180 180 131 94 94 75 75 53 53 30 29 29 42 42 56 56 70 61 61 92 92 118 75 75 75 75 89 89 52 47 47 49 49 17 10 10 6 6 6 6 10 9 9 9 9 9 9 7 6 6 5 5 4 2 2 1 1 0 0 0 0 0 0 0 0 0 0 0 0 0 0 0 0 0 0 0 0 0 0 0 0 0 0 0 0 0 0 0 0 0 0 0 0 0 0 0 0 0 0 0 0 0 0 0 0 0 0 0 0 0 0 0 0 0 0 0 0 0 0 0 0 0 0 0 0 0 0 0 0 0 0 0 0 0 0 0 0 0 0 0 0 0 0 0 0 0 0 0 0 0 0 0 0 32767
61 61 103 103 122 160 160 195 195 161 137 137 112 112 83 83 89 50 50 27 27 34 34 36 53 53 98 98 129 101 101 45 45 68 68 36 16 16 12 12 5 4 4 7 7 6 6 6 7 7 7 7 8 8 5 1 1 0 0 0 0 0 0 0 0 0 0 0 0 0 0 0 0 0 0 0 0 0 0 0 0 0 0 0 0 0 0 0 0 0 0 0 0 0 0 0 0 0 0 0 0 0 0 0 0 0 0 0 0 0 0 0 0 0 0 0 0 0 0 0 0 0 0 0 0 0 0 0 0 0 0 0 0 0 0 0 0 0 0 0 0 0 0 0 0 0 0 0 0 0 0 0 0 0 0 0 0 0 0 0 32767
61 61 103 103 122 160 160 195 195 161 137 137 112 112 83 83 89 50 50 27 27 34 34 36 53 53 98 98 129 101 101 45 45 68 68 36 16 16 12 12 5 4 4 7 7 6 6 6 7 7 7 7 8 8 5 1 1 0 0 0 0 0 0 0 0 0 0 0 0 0 0 0 0 0 0 0 0 0 0 0 0 0 0 0 0 0 0 0 0 0 0 0 0 0 0 0 0 0 0 0 0 0 0 0 0 0 0 0 0 0 0 0 0 0 0 0 0 0 0 0 0 0 0 0 0 0 0 0 0 0 0 0 0 0 0 0 0 0 0 0 0 0 0 0 0 0 0 0 0 0 0 0 0 0 0 0 0 0 0 0 32767
35 35 54 54 76 107 107 147 147 166 119 119 100 100 92 92 77 65 65 42 42 18 18 19 43 43 74 74 81 67 67 43 43 25 25 11 6 6 4 4 3 3 3 6 6 7 7 5 5 5 1 1 0 0 0 0 0 0 0 0 0 0 0 0 0 0 0 0 0 0 0 0 0 0 0 0 0 0 0 0 0 0 0 0 0 0 0 0 0 0 0 0 0 0 0 0 0 0 0 0 0 0 0 0 0 0 0 0 0 0 0 0 0 0 0 0 0 0 0 0 0 0 0 0 0 0 0 0 0 0 0 0 0 0 0 0 0 0 0 0 0 0 0 0 0 0 0 0 0 0 0 0 0 0 0 0 0 0 0 0 32767
35 35 54 54 76 107 107 147 147 166 119 119 100 100 92 92 77 65 65 42 42 18 18 19 43 43 74 74 81 67 67 43 43 25 25 11 6 6 4 4 3 3 3 6 6 7 7 5 5 5 1 1 0 0 0 0 0 0 0 0 0 0 0 0 0 0 0 0 0 0 0 0 0 0 0 0 0 0 0 0 0 0 0 0 0 0 0 0 0 0 0 0 0 0 0 0 0 0 0 0 0 0 0 0 0 0 0 0 0 0 0 0 0 0 0 0 0 0 0 0 0 0 0 0 0 0 0 0 0 0 0 0 0 0 0 0 0 0 0 0 0 0 0 0 0 0 0 0 0 0 0 0 0 0 0 0 0 0 0 0 32767
35 35 54 54 76 107 107 147 147 166 119 119 100 100 92 92 77 65 65 42 42 18 18 19 43 43 74 74 81 67 67 43 43 25 25 11 6 6 4 4 3 3 3 6 6 7 7 5 5 5 1 1 0 0 0 0 0 0 0 0 0 0 0 0 0 0 0 0 0 0 0 0 0 0 0 0 0 0 0 0 0 0 0 0 0 0 0 0 0 0 0 0 0 0 0 0 0 0 0 0 0 0 0 0 0 0 0 0 0 0 0 0 0 0 0 0 0 0 0 0 0 0 0 0 0 0 0 0 0 0 0 0 0 0 0 0 0 0 0 0 0 0 0 0 0 0 0 0 0 0 0 0 0 0 0 0 0 0 0 0 32767
29 29 38 38 57 67 67 80 80 99 90 90 86 86 75 75 53 44 44 29 29 15 15 14 22 22 34 34 47 39 39 16 16 8 8 5 4 4 7 7 5 5 5 7 7 4 4 1 0 0 0 0 0 0 0 0 0 0 0 0 0 0 0 0 0 0 0 0 0 0 0 0 0 0 0 0 0 0 0 0 0 0 0 0 0 0 0 0 0 0 0 0 0 0 0 0 0 0 0 0 0 0 0 0 0 0 0 0 0 0 0 0 0 0 0 0 0 0 0 0 0 0 0 0 0 0 0 0 0 0 0 0 0 0 0 0 0 0 0 0 0 0 0 0 0 0 0 0 0 0 0 0 0 0 0 0 0 0 0 0 32767
29 29 38 38 57 67 67 80 80 99 90 90 86 86 75 75 53 44 44 29 29 15 15 14 22 22 34 34 47 39 39 16 16 8 8 5 4 4 7 7 5 5 5 7 7 4 4 1 0 0 0 0 0 0 0 0 0 0 0 0 0 0 0 0 0 0 0 0 0 0 0 0 0 0 0 0 0 0 0 0 0 0 0 0 0 0 0 0 0 0 0 0 0 0 0 0 0 0 0 0 0 0 0 0 0 0 0 0 0 0 0 0 0 0 0 0 0 0 0 0 0 0 0 0 0 0 0 0 0 0 0 0 0 0 0 0 0 0 0 0 0 0 0 0 0 0 0 0 0 0 0 0 0 0 0 0 0 0 0 0 32767
