ncols        160
nrows        147
xllcorner    365696.508272
yllcorner    4569965.05604
cellsize     100.000000000000
NODATA_value -9999
32767 32767 32767 32767 792 830 830 850 850 836 813 813 788 788 774 774 788 796 796 821 821 839 839 844 858 858 844 844 821 821 797 765 765 741 741 713 713 699 682 682 670 670 663 655 655 657 657 656 656 646 662 662 689 689 715 715 734 745 745 731 731 696 696 670 640 640 615 615 620 620 648 676 676 719 719 745 745 759 775 775 783 783 780 787 787 788 788 754 754 729 730 730 764 764 782 782 796 790 790 773 773 771 771 767 754 754 725 725 701 701 676 634 634 599 599 558 518 518 494 494 520 549 581 630 630 656 656 638 638 561 505 505 511 511 530 530 525 511 511 497 497 484 484 474 456 456 445 445 429 411 411 400 400 397 397 383 381 381 375 375
32767 32767 32767 792 792 828 828 851 851 838 819 819 804 804 812 812 828 827 827 813 813 823 823 831 826 826 831 831 808 808 777 755 755 735 735 713 713 695 681 681 669 669 661 648 648 641 641 656 656 646 662 662 689 689 715 715 734 745 745 731 731 696 696 670 640 640 615 615 620 620 648 676 676 719 719 745 759 759 775 775 783 783 780 787 787 788 788 754 754 729 730 730 764 764 782 782 796 790 790 773 773 771 771 767 754 754 725 725 701 701 676 634 634 599 599 558 518 518 494 494 520 520 542 586 586 603 603 604 604 544 496 496 494 494 501 501 502 492 492 492 492 490 490 484 481 481 477 477 464 433 433 401 401 390 390 377 371 371 371 371
32767 32767 32767 792 792 828 828 851 851 838 819 819 804 804 812 812 828 827 827 813 813 823 823 831 826 826 831 831 808 808 777 755 755 735 735 713 713 695 681 681 669 669 661 648 648 641 641 643 643 639 657 657 675 675 676 676 688 699 699 709 709 693 693 652 622 622 606 606 623 623 646 668 668 684 684 707 732 732 756 756 775 775 789 809 809 774 774 742 742 740 760 760 788 788 790 790 809 798 798 789 789 791 791 789 754 754 725 725 701 676 676 634 634 599 599 558 518 518 494 494 520 520 542 586 586 603 603 604 604 544 496 496 494 494 501 501 502 492 492 492 492 490 490 484 481 481 477 477 464 433 433 401 401 390 390 377 371 371 371 371
32767 32767 32767 777 777 793 793 813 813 807 810 810 798 798 825 825 840 836 836 832 832 829 829 820 809 809 808 808 783 783 777 755 755 735 735 713 695 695 681 681 669 669 661 648 648 641 641 643 643 639 657 657 675 675 676 676 688 699 699 709 709 693 693 652 622 622 606 606 623 623 646 668 668 684 684 707 732 732 756 756 775 775 789 809 809 774 774 742 742 740 760 760 788 788 790 790 809 798 798 789 789 791 791 789 769 769 748 748 735 706 706 648 648 589 589 527 499 499 494 494 485 485 489 517 517 531 531 525 525 496 470 470 468 468 484 484 488 480 480 475 475 475 481 481 479 479 475 475 460 431 431 411 411 389 389 372 364 364 358 358
32767 32767 32767 777 777 793 793 813 813 807 810 810 798 798 825 825 840 836 836 832 832 829 829 820 809 809 808 808 783 783 754 733 733 709 709 699 682 682 671 671 658 658 659 654 654 645 645 633 633 629 635 635 640 640 644 644 646 656 656 658 658 661 661 648 619 619 603 603 628 654 654 678 678 670 670 681 704 704 736 736 772 772 802 782 782 762 762 742 742 740 760 760 788 788 790 790 809 798 798 789 789 791 791 789 769 769 748 748 735 706 706 648 648 589 589 527 499 499 494 494 485 485 489 517 517 531 531 525 525 496 470 470 468 468 484 484 488 480 480 475 475 475 481 481 479 479 475 475 460 431 431 411 411 389 389 372 364 364 358 358
32767 32767 32767 734 734 772 772 781 781 774 773 773 799 798 825 825 840 836 836 832 832 829 829 820 809 809 808 808 783 754 754 733 733 709 709 699 682 682 671 671 658 658 659 654 654 645 645 633 633 629 635 635 640 640 644 644 646 656 656 658 658 661 661 648 619 619 603 603 628 654 654 678 678 670 670 681 704 704 736 736 772 772 802 782 782 762 762 762 762 765 763 763 754 754 760 760 780 786 786 783 783 776 767 767 749 749 735 735 711 655 655 609 609 566 566 535 541 541 569 569 576 576 515 471 471 468 468 462 462 455 441 441 445 445 468 468 478 475 475 468 468 461 456 456 451 479 475 475 460 431 431 411 411 389 389 372 364 364 358 358
32767 32767 32767 734 734 772 772 781 781 774 773 773 799 799 826 826 832 832 832 833 833 824 824 811 793 793 796 796 763 731 731 713 713 696 696 674 664 664 659 659 655 655 648 640 640 633 633 625 625 617 619 619 626 626 632 632 631 633 633 621 621 616 619 619 607 607 601 601 616 636 636 678 678 670 670 681 704 704 736 736 772 772 802 782 782 762 762 762 762 765 763 763 754 754 760 760 780 786 786 783 783 776 767 767 749 749 735 735 711 655 655 609 609 566 566 535 541 541 569 569 576 576 515 471 471 468 468 462 462 455 441 441 445 445 468 478 478 475 475 468 468 461 456 456 451 451 429 429 422 410 410 394 394 371 371 359 355 355 354 354
32767 32767 32767 734 734 772 772 781 781 774 773 773 799 799 826 826 832 832 832 833 833 824 824 811 793 793 796 796 763 731 731 713 713 696 696 674 664 664 659 659 655 655 648 640 640 633 633 625 625 617 619 619 626 626 632 632 631 633 633 621 621 616 619 619 607 607 601 601 616 636 636 652 652 660 660 689 722 722 763 763 792 792 775 749 749 753 753 782 782 754 720 720 741 741 777 777 780 785 785 788 788 780 728 728 696 696 693 693 662 639 639 617 617 601 601 587 611 611 634 634 596 596 540 515 515 501 501 488 462 455 441 441 445 445 468 478 478 475 475 468 468 461 456 456 451 451 429 429 422 410 410 394 394 371 371 359 355 355 354 354
32767 32767 32767 701 701 717 717 740 740 752 773 773 798 798 819 819 829 830 830 854 854 837 812 812 783 783 788 788 776 747 747 705 705 683 683 665 662 662 660 660 647 647 639 634 634 626 626 619 619 612 614 614 618 618 632 632 631 633 633 621 621 616 619 619 607 607 601 601 616 636 636 652 652 660 660 689 722 722 763 763 792 792 775 749 749 753 753 782 782 754 720 720 741 741 777 780 780 785 785 788 788 780 728 728 696 696 693 693 662 639 639 617 617 601 601 587 611 611 634 634 596 596 540 515 515 501 501 488 488 479 455 455 428 428 454 471 471 482 482 484 484 475 484 484 478 478 440 440 411 385 385 372 372 362 362 353 347 347 344 344
32767 32767 32767 701 701 717 717 740 740 752 773 773 798 798 819 819 829 830 830 854 854 837 812 812 783 783 788 788 776 747 747 705 705 683 683 665 662 662 660 660 647 647 639 634 634 626 626 619 619 612 614 614 618 618 625 632 632 625 625 614 614 607 595 595 602 602 615 615 631 652 652 666 666 680 680 687 712 712 741 741 751 751 739 719 719 739 739 765 765 744 704 704 730 730 756 751 751 768 768 749 749 726 701 701 659 659 640 640 638 661 661 617 617 601 601 587 611 611 634 634 596 596 540 515 515 501 501 488 479 479 455 455 428 428 454 471 471 482 482 484 484 475 484 484 478 478 440 440 411 385 385 372 372 362 362 353 347 347 344 344
32767 32767 32767 661 661 731 731 765 765 768 782 782 805 805 813 817 817 812 812 825 825 813 797 797 766 766 771 771 779 752 752 722 722 689 689 678 691 662 660 660 647 647 639 634 634 626 626 619 619 612 614 614 618 618 625 632 632 625 625 614 614 607 595 595 602 602 615 615 631 652 652 666 666 680 680 687 712 712 741 741 751 751 739 719 719 739 739 765 744 744 704 704 730 730 756 751 751 768 768 749 749 726 701 701 659 659 640 640 638 661 661 649 649 634 634 606 572 572 548 548 525 525 507 497 497 482 482 480 462 462 461 461 435 435 419 425 425 456 456 478 478 475 458 458 439 439 421 421 403 389 389 376 376 362 362 354 347 347 342 342
32767 32767 32767 661 661 731 731 765 765 768 782 782 805 805 813 817 817 812 812 825 825 813 797 797 766 766 771 771 779 752 752 722 722 689 689 678 691 691 675 675 658 658 648 642 642 639 639 634 634 618 607 607 613 613 640 638 638 624 624 625 625 620 600 600 615 615 648 648 660 660 660 670 670 675 675 684 696 696 717 717 723 723 720 706 706 706 706 734 711 711 667 667 698 698 756 751 751 768 768 749 749 726 701 701 659 659 640 640 638 661 661 649 649 634 634 606 572 572 548 548 525 525 507 497 497 482 482 480 462 462 461 461 435 435 419 425 425 456 456 478 478 475 458 458 439 439 421 421 403 389 389 376 376 362 362 354 347 347 342 342
32767 32767 32767 642 642 665 665 699 699 716 764 764 792 792 790 797 797 796 796 786 825 813 797 797 766 766 771 771 779 752 752 722 722 689 689 678 691 691 675 675 658 658 648 642 642 639 639 634 618 618 607 607 613 613 640 638 638 624 624 625 625 620 600 600 615 615 648 648 660 660 660 670 670 675 675 684 696 696 717 717 723 723 720 706 706 706 706 734 711 711 667 667 698 698 715 700 700 705 705 702 702 666 654 654 628 628 623 623 647 649 649 634 634 604 604 567 562 562 546 546 523 540 540 545 545 558 558 565 517 517 523 523 486 486 444 402 402 404 404 419 419 423 419 419 407 407 398 398 391 379 379 374 376 362 362 354 347 347 342 342
32767 32767 32767 642 642 665 665 699 716 716 764 764 792 792 790 797 797 796 796 786 786 752 750 750 774 774 778 778 775 749 749 725 725 698 698 690 691 691 678 678 661 661 655 652 652 642 642 635 629 629 634 634 624 624 615 614 614 590 590 606 606 621 593 593 628 628 654 654 666 678 678 686 686 688 688 685 700 700 717 717 723 720 720 706 706 706 706 734 711 711 667 667 698 698 715 700 700 705 705 702 702 666 654 654 628 628 623 623 647 649 649 634 634 604 604 567 562 562 546 546 523 540 540 545 545 558 558 565 517 517 523 523 486 486 444 402 402 404 404 419 419 423 419 419 407 407 398 398 391 379 379 374 374 364 352 352 346 346 336 336
32767 32767 32767 590 642 665 665 699 716 716 764 764 792 792 790 797 797 796 796 786 786 752 750 750 774 774 778 778 775 749 749 725 725 698 698 690 691 691 678 678 661 655 655 652 652 642 642 635 629 629 634 634 624 624 615 614 614 590 590 606 606 621 593 593 628 628 654 654 666 678 678 686 686 688 688 685 700 700 714 714 722 725 725 710 710 678 678 703 676 676 642 642 675 675 655 658 658 661 661 645 645 635 609 609 604 604 646 646 667 667 667 631 631 603 603 620 614 614 582 582 571 623 623 620 620 635 635 614 561 561 568 568 528 528 455 402 402 404 404 419 419 423 419 419 407 407 398 398 391 379 379 374 374 364 352 352 346 346 336 336
32767 32767 32767 590 590 604 604 635 695 695 729 729 750 750 773 775 775 790 790 746 746 723 767 767 764 764 751 751 745 712 712 709 709 717 717 731 732 732 719 719 696 693 693 683 683 669 669 652 645 645 639 639 633 633 650 654 654 636 636 607 607 621 593 593 628 628 654 654 666 678 678 686 686 688 688 685 700 700 714 714 722 725 725 710 710 678 678 703 676 676 642 642 675 675 655 658 658 661 661 645 645 635 609 609 604 604 646 646 667 667 667 631 631 603 620 620 614 614 582 582 571 623 623 620 620 635 635 614 561 561 568 568 528 528 455 413 413 392 392 386 386 393 395 395 390 390 384 384 380 372 372 366 366 363 354 354 343 343 338 338
32767 32767 32767 590 590 604 604 635 695 695 729 729 750 750 773 775 775 790 790 746 746 723 767 767 764 764 751 751 745 712 712 709 709 717 717 731 732 732 719 719 696 693 693 683 683 669 669 652 645 645 639 639 633 633 650 654 654 636 636 607 607 580 588 588 633 633 659 659 674 688 688 688 688 693 716 716 722 722 735 735 726 717 717 669 669 627 627 652 631 631 615 615 632 632 614 626 626 646 646 623 623 600 587 587 599 599 636 636 656 655 655 657 657 647 646 646 641 641 582 582 571 623 623 620 620 635 635 614 561 561 568 568 528 528 455 413 413 392 392 386 386 393 395 395 390 390 384 380 380 372 372 366 366 363 354 354 343 343 338 338
32767 32767 32767 555 555 580 580 610 635 635 653 653 719 719 766 740 740 727 727 698 698 729 751 751 729 729 705 705 688 697 697 726 726 753 787 787 796 796 767 767 749 741 741 729 683 669 669 652 645 645 639 639 633 633 650 654 654 636 636 607 607 580 588 588 633 633 659 659 674 688 688 688 688 693 716 716 722 722 735 735 726 717 717 669 669 627 627 652 631 631 615 615 632 632 614 626 626 646 646 623 623 600 587 587 599 599 636 656 656 655 655 657 657 647 646 646 641 641 642 642 647 666 666 684 684 676 676 625 574 574 563 563 517 517 464 458 458 423 423 396 396 377 374 374 373 373 376 373 373 367 367 361 361 356 354 354 343 343 333 333
32767 32767 32767 555 555 580 580 610 635 635 653 653 719 719 766 740 740 727 727 698 698 729 751 751 729 729 705 705 688 697 697 726 726 753 787 787 796 796 767 767 749 741 741 729 729 710 710 688 670 670 654 654 646 646 665 671 671 665 665 655 655 623 575 575 581 581 654 654 673 667 667 688 688 714 738 738 749 749 741 741 693 672 672 640 640 602 602 609 587 587 582 582 592 592 580 580 580 584 584 589 589 581 587 587 599 599 636 656 656 655 655 657 657 647 646 646 641 641 642 642 647 666 666 684 684 676 676 625 574 574 563 563 517 517 464 458 458 423 423 396 396 377 374 374 373 373 376 373 373 367 367 361 361 356 354 354 343 343 333 333
32767 32767 32767 539 539 558 558 569 585 585 615 615 661 661 717 686 686 659 659 646 646 708 697 697 678 678 654 705 688 697 697 726 726 753 787 787 796 796 767 767 749 741 741 729 729 710 710 688 670 670 654 654 646 646 665 671 671 665 665 655 655 623 575 575 581 581 654 673 673 667 667 688 688 714 738 738 749 749 741 741 693 672 672 640 640 602 602 609 587 587 582 582 592 592 580 580 580 584 584 589 589 581 573 573 588 588 612 628 628 641 641 643 643 638 625 625 659 659 671 671 673 664 664 669 669 644 644 627 591 591 545 545 524 524 496 467 467 442 442 415 398 398 387 387 376 376 366 363 363 366 366 361 361 352 348 348 344 344 336 333
32767 32767 32767 539 539 558 558 569 585 585 615 615 661 661 717 686 686 659 659 646 646 708 697 697 678 678 654 678 678 707 707 746 746 785 786 786 784 784 783 783 785 793 793 783 783 754 754 731 697 697 664 664 661 661 687 703 703 696 696 671 671 655 605 605 569 569 634 638 638 667 667 690 690 706 721 721 729 729 700 700 649 630 630 647 647 602 602 609 587 587 582 582 592 592 580 580 580 584 584 589 581 581 573 573 588 588 612 628 628 641 641 643 643 638 625 625 659 659 671 671 673 664 664 669 669 644 644 627 591 591 545 545 524 524 496 467 467 442 442 415 398 398 387 387 376 376 366 363 363 366 366 361 361 352 348 348 344 344 336 336
32767 32767 32767 524 524 551 551 581 609 609 615 615 661 661 717 686 686 659 659 646 646 708 697 697 678 678 654 678 678 707 707 746 746 785 786 786 784 784 783 783 785 793 793 783 783 754 754 731 697 697 664 664 661 661 687 703 703 696 696 671 655 655 605 605 569 569 634 638 638 667 667 690 690 706 721 721 729 729 700 700 649 630 630 647 647 593 593 563 566 566 587 587 597 597 587 577 577 572 572 600 595 595 575 575 567 567 594 602 602 600 600 605 605 618 607 607 627 627 643 643 654 641 641 617 617 587 587 574 553 553 529 529 510 510 511 500 500 478 478 446 429 429 387 387 376 376 366 363 363 366 366 361 361 352 348 348 344 344 336 336
32767 32767 32767 524 524 551 551 581 609 609 615 615 638 638 646 643 643 613 613 612 651 651 628 628 620 620 630 665 665 705 705 765 765 749 730 730 717 717 723 723 739 770 770 790 790 784 784 750 706 706 680 680 679 679 667 659 659 648 648 635 625 625 593 593 556 556 587 627 638 667 667 690 690 706 721 721 729 729 700 700 649 630 630 647 647 593 593 563 566 566 587 587 597 597 587 577 577 572 572 600 595 595 575 575 567 567 594 602 602 600 600 605 605 618 607 607 627 627 643 643 654 641 641 617 617 587 587 574 553 553 529 529 510 511 511 500 500 478 478 446 429 429 413 413 410 410 393 368 368 358 358 355 355 355 353 353 348 348 343 343
32767 32767 32767 524 524 551 551 581 609 609 615 615 638 638 646 643 643 613 613 612 651 651 628 628 620 620 630 665 665 705 705 765 765 749 730 730 717 717 723 723 739 770 770 790 790 784 784 750 706 706 680 680 679 679 667 659 659 648 648 635 625 625 593 593 556 556 587 627 627 640 640 674 674 685 695 695 672 672 660 660 621 592 592 583 583 554 554 561 586 586 575 575 580 569 569 589 589 577 577 558 554 554 574 574 575 575 562 557 557 556 556 587 587 607 587 587 592 592 618 618 603 625 625 622 622 587 587 574 553 553 529 529 510 511 511 500 500 478 478 446 429 429 413 413 410 410 393 368 368 358 358 355 355 355 353 353 348 348 343 343
32767 32767 32767 515 515 534 534 556 580 580 607 607 583 583 580 595 595 570 570 611 622 622 594 594 581 581 618 655 655 696 696 727 727 699 682 682 672 672 709 709 745 771 771 792 792 809 809 776 744 744 715 680 679 667 667 659 659 648 648 635 625 625 593 593 556 556 587 627 627 640 640 674 674 685 695 695 672 672 660 660 621 592 592 583 583 554 554 561 586 586 575 575 580 569 569 589 589 577 577 558 554 554 574 574 575 575 562 557 557 556 556 587 587 607 587 587 592 592 618 618 603 625 625 622 622 586 586 558 538 538 520 520 510 498 498 527 527 486 486 464 447 447 430 430 420 420 400 375 375 358 358 350 350 346 342 342 339 339 337 337
32767 32767 32767 515 515 534 534 556 580 580 607 607 583 580 580 595 595 570 570 611 622 622 594 594 581 581 618 655 655 696 696 727 727 699 682 682 672 672 709 709 745 771 771 792 792 809 809 776 744 744 715 715 710 679 679 651 651 628 628 615 618 618 623 623 563 563 544 547 547 586 586 614 614 612 634 634 622 622 597 597 568 549 549 544 544 535 535 549 558 558 549 549 544 541 541 560 560 569 569 554 535 535 546 546 562 562 563 555 555 556 556 587 587 607 587 587 592 592 618 618 603 625 625 622 622 586 558 558 538 538 520 520 510 498 498 527 527 486 486 464 447 447 430 430 420 420 400 375 375 358 358 350 350 346 342 342 339 339 337 337
32767 32767 32767 493 493 502 502 511 543 543 554 554 541 559 559 581 581 556 556 559 572 572 566 566 572 572 600 640 640 684 684 694 694 656 639 682 672 672 709 709 745 771 771 792 792 809 776 776 744 744 715 715 710 679 679 651 651 628 628 615 618 618 623 623 563 563 544 547 547 586 586 614 614 612 634 634 622 622 597 597 568 549 549 544 544 535 549 549 558 558 549 549 544 541 541 560 560 569 569 554 535 535 546 546 562 562 563 555 555 533 533 575 575 573 565 565 575 575 602 602 564 574 574 587 587 566 554 554 529 529 506 506 486 479 479 516 516 510 510 484 470 470 444 444 423 423 405 386 386 369 369 359 359 352 348 348 342 342 335 32767
32767 32767 32767 493 493 502 511 511 543 543 554 554 541 559 559 581 581 556 556 559 572 572 566 566 572 572 600 640 640 684 684 694 694 656 639 639 677 677 699 699 722 729 729 774 774 827 780 780 735 735 731 731 690 650 650 626 626 607 607 601 592 592 602 602 607 607 604 552 552 526 526 546 546 565 566 566 559 559 541 541 531 533 533 532 532 524 516 516 528 528 534 534 544 541 541 560 560 569 569 554 535 535 546 546 562 562 563 555 555 533 533 575 575 573 565 565 575 575 602 564 564 574 574 587 587 566 554 554 529 529 506 506 486 479 479 516 516 510 510 484 470 470 444 444 423 423 405 386 386 369 369 359 359 352 348 348 342 342 335 32767
32767 32767 32767 473 473 474 492 492 514 514 518 518 552 562 562 543 543 532 556 559 572 572 566 566 572 572 600 640 640 684 684 694 694 656 639 639 677 677 699 699 722 729 729 774 774 827 780 780 735 735 731 731 690 650 650 626 626 607 607 601 592 592 602 602 607 607 604 552 552 526 526 546 546 565 566 566 559 559 541 531 531 533 533 532 532 524 516 516 528 528 534 534 537 536 536 534 534 546 546 533 527 527 522 522 540 540 542 532 532 519 519 565 565 559 543 543 574 574 588 564 564 534 534 549 549 542 560 560 526 526 504 504 496 476 476 474 474 499 499 481 458 458 444 444 423 423 410 413 413 369 369 359 359 352 348 348 342 342 335 32767
32767 32767 32767 473 473 474 492 492 514 514 518 518 552 562 562 543 543 532 532 553 541 541 544 544 561 561 584 611 611 665 665 688 688 658 611 611 629 629 643 656 656 692 692 744 744 788 782 782 707 707 673 673 643 622 622 626 626 638 638 620 599 599 568 568 560 560 557 553 553 531 531 518 518 522 515 566 559 559 541 531 531 533 533 532 532 524 516 516 528 528 534 534 537 536 536 534 534 546 546 533 527 527 522 522 540 540 542 532 532 519 519 565 565 559 543 543 574 574 588 564 564 534 534 549 549 542 560 560 526 526 504 504 496 476 476 474 474 499 499 481 458 458 444 444 423 423 410 413 413 402 402 392 374 374 363 363 354 354 349 32767
32767 32767 32767 473 473 474 492 492 514 514 518 518 552 562 562 543 543 532 532 553 541 541 544 544 561 561 584 611 611 665 665 688 688 658 611 611 629 629 643 656 656 692 692 744 744 788 782 782 707 707 673 673 643 622 622 626 626 638 638 620 599 599 568 568 560 560 557 553 553 531 531 518 518 522 515 515 513 513 516 519 519 520 520 521 521 517 506 506 513 513 522 522 519 518 518 514 514 517 517 516 516 516 512 512 513 513 523 500 500 527 527 539 531 531 548 548 572 572 539 557 557 523 523 513 513 508 539 539 532 532 494 494 476 476 476 474 474 499 499 481 458 458 444 444 423 423 410 413 413 402 402 392 374 374 363 363 354 354 349 32767
32767 32767 32767 457 457 469 488 488 490 490 509 509 526 515 515 522 522 545 545 541 528 528 554 554 564 564 578 596 596 616 616 616 608 608 589 589 621 621 644 656 656 690 690 725 725 731 735 735 684 684 649 649 639 650 650 660 660 651 638 620 599 599 568 568 560 560 557 553 553 531 531 518 522 522 515 515 513 513 516 519 519 520 520 521 521 517 506 506 513 513 522 522 519 518 518 514 514 517 517 516 516 516 512 512 513 513 523 500 500 527 527 539 531 531 548 548 572 572 539 557 557 523 523 513 513 508 539 539 532 532 494 494 476 460 460 452 452 477 477 476 473 473 449 449 430 430 414 416 416 433 433 424 398 398 382 382 387 387 389 32767
32767 32767 32767 457 457 469 488 488 490 490 509 509 526 515 515 522 522 545 545 541 528 528 554 554 564 564 578 596 596 616 616 616 608 608 589 589 621 621 644 656 656 690 690 725 725 731 735 735 684 684 649 649 639 650 650 660 660 651 651 619 599 599 576 576 560 560 570 564 564 552 552 561 540 540 525 525 514 514 499 496 496 496 496 497 497 499 494 494 500 500 505 505 503 505 505 506 506 508 508 501 508 508 508 508 496 496 509 491 491 519 519 517 542 542 545 545 572 572 539 557 557 523 523 513 513 508 539 539 532 532 494 494 476 460 460 452 452 477 477 476 473 473 449 449 430 414 414 416 416 433 433 424 398 398 382 382 387 387 389 32767
32767 32767 32767 452 452 468 479 479 491 491 497 497 500 490 490 498 498 502 502 512 546 546 580 580 582 582 597 600 600 581 581 566 563 563 564 564 580 580 604 629 629 661 690 725 725 731 735 735 684 684 649 649 639 650 650 660 660 651 651 619 599 599 576 576 560 570 570 564 564 552 552 561 540 540 525 525 514 514 499 496 496 496 496 497 497 499 494 494 500 500 505 505 503 505 505 506 506 508 508 501 508 508 508 508 496 509 509 491 491 519 519 517 542 542 545 545 551 551 513 526 526 509 509 489 489 481 510 510 520 520 518 518 498 472 472 448 448 440 440 445 464 464 461 461 451 421 421 405 405 425 425 439 418 418 405 405 422 422 419 32767
32767 32767 32767 452 452 468 479 479 491 491 497 497 500 490 490 498 498 502 502 512 546 546 580 580 582 597 597 600 600 581 581 566 563 563 564 564 580 580 604 629 629 661 661 684 684 681 677 677 667 667 665 665 664 679 679 674 674 654 654 653 625 625 590 590 580 588 588 576 576 574 574 556 535 535 523 523 511 511 500 488 488 485 485 482 482 483 483 483 487 487 493 493 495 500 500 505 505 510 510 501 508 508 508 508 496 509 509 491 491 519 519 517 542 542 545 545 551 551 513 526 526 509 509 489 489 481 510 510 520 520 518 518 498 472 472 448 448 440 440 445 464 464 461 461 451 421 421 405 405 425 425 439 418 418 405 405 422 422 419 32767
32767 32767 32767 462 462 473 482 482 484 484 487 487 486 484 484 498 498 506 506 518 531 531 528 528 535 597 597 600 600 581 581 566 563 563 564 564 580 580 604 629 629 661 661 684 684 681 677 677 667 667 665 665 664 679 679 674 674 654 654 653 625 625 590 590 580 588 588 576 576 574 574 556 535 535 523 523 511 511 500 488 488 485 485 482 482 483 483 483 487 487 493 493 495 500 500 505 505 510 500 500 490 490 502 502 499 495 495 485 485 501 501 510 510 510 514 514 526 526 503 486 486 494 494 497 497 468 497 497 488 488 500 500 505 485 485 469 469 443 424 424 435 435 432 432 430 417 417 401 401 407 407 424 435 435 452 452 422 422 419 32767
32767 32767 32767 462 462 473 482 482 484 484 487 487 486 484 484 498 498 506 518 518 531 531 528 528 535 539 539 545 545 545 545 541 550 550 559 559 588 588 626 667 667 706 706 709 709 666 662 662 701 701 714 714 724 759 759 734 734 704 689 689 641 641 603 603 585 559 559 547 547 543 543 547 538 538 529 529 521 521 512 508 508 504 485 482 482 483 483 483 487 487 493 493 495 500 500 505 505 510 500 500 490 490 502 502 499 495 495 485 485 501 501 510 510 510 514 514 526 526 503 486 486 494 494 497 497 468 497 497 488 488 500 500 505 485 485 469 469 443 424 424 435 435 432 432 430 417 417 401 401 407 407 424 435 435 452 452 448 448 433 32767
32767 32767 32767 456 456 466 471 471 484 484 487 487 486 484 484 498 498 506 518 518 531 531 528 528 535 539 539 545 545 545 545 541 550 550 559 559 588 588 626 667 667 706 706 709 709 666 662 662 701 701 714 714 724 759 759 734 734 704 689 689 641 641 603 603 585 559 559 547 547 543 543 547 538 538 529 529 521 521 512 508 508 504 504 499 499 493 480 480 480 480 490 490 489 486 486 500 500 507 505 505 492 492 483 483 486 481 481 480 480 478 478 511 500 500 493 493 501 501 475 462 462 467 467 481 481 450 474 474 476 476 475 492 492 467 467 480 480 472 441 441 435 435 432 432 430 417 417 401 401 407 407 424 435 435 452 452 448 448 433 32767
32767 32767 32767 456 456 466 471 471 478 478 480 480 469 473 473 482 482 489 501 501 505 505 503 503 521 540 540 550 550 571 571 594 603 603 600 600 625 625 672 689 689 690 690 670 670 641 657 657 699 699 693 729 729 742 742 731 731 695 658 658 639 639 605 605 580 578 559 547 547 543 543 547 538 538 529 529 521 521 512 508 508 504 504 499 499 493 480 480 480 480 490 489 489 486 486 500 500 507 505 505 492 492 483 483 486 481 481 480 480 478 478 511 500 500 493 493 501 501 475 462 462 467 467 481 481 450 474 474 476 476 475 492 492 467 467 480 480 472 441 441 416 416 407 407 400 416 416 410 410 395 395 413 441 441 450 450 436 436 424 32767
32767 32767 32767 456 456 466 471 471 478 478 480 469 469 473 473 482 482 489 501 501 505 505 503 503 521 540 540 550 550 571 571 594 603 603 600 600 625 625 672 689 689 690 690 670 670 641 657 657 699 699 693 729 729 742 742 731 731 695 658 658 639 639 605 605 580 578 578 571 571 567 567 560 539 539 522 522 524 524 520 513 513 521 521 523 523 513 497 497 480 480 478 483 483 479 479 493 493 511 520 520 523 523 508 508 497 478 478 468 468 472 472 503 494 494 478 478 486 486 476 455 455 454 454 481 481 450 474 474 476 476 475 492 492 467 467 480 480 472 441 441 416 416 407 407 400 416 416 410 410 395 395 413 441 441 450 450 436 436 424 32767
32767 32767 32767 459 459 466 472 472 473 473 468 457 457 471 471 482 482 487 486 486 513 513 526 526 542 551 551 580 580 596 596 582 590 590 603 603 623 623 645 617 617 617 617 620 620 619 640 640 664 699 693 729 729 742 742 731 731 695 658 658 639 639 605 605 580 578 578 571 571 567 567 560 539 539 522 522 524 524 520 513 513 521 521 523 523 513 497 497 480 480 478 483 483 479 479 493 493 511 520 520 523 523 508 508 497 478 478 468 468 472 472 503 494 494 478 478 486 486 476 455 455 454 454 455 436 436 459 459 485 485 460 462 462 453 453 456 456 479 458 458 441 441 438 438 423 390 390 391 391 423 423 460 458 458 443 443 426 426 412 32767
32767 32767 32767 459 466 466 472 472 473 473 468 457 457 471 471 482 482 487 486 486 513 513 526 526 542 551 551 580 580 596 596 582 590 590 603 603 623 623 645 617 617 617 617 620 619 619 640 640 664 664 684 699 699 712 712 698 698 675 649 649 630 630 631 631 637 612 612 579 579 559 559 547 542 542 563 563 566 566 547 531 531 526 526 528 514 514 506 506 488 488 470 465 465 468 468 488 488 501 505 505 512 512 518 518 498 480 478 468 468 472 472 503 494 494 478 478 486 486 476 455 455 454 454 455 436 436 459 459 485 485 460 462 462 453 453 456 456 479 458 458 441 441 438 438 423 390 390 391 391 423 423 460 458 458 443 443 426 426 412 32767
32767 32767 32767 456 462 462 466 466 463 463 454 450 450 465 465 466 466 475 492 492 522 522 534 534 528 525 525 552 552 553 553 566 590 590 603 603 623 623 645 617 617 617 617 620 619 619 640 640 664 664 684 699 699 712 712 698 698 675 649 649 630 630 631 631 637 612 612 579 579 559 559 547 542 542 563 563 566 566 547 531 531 526 526 528 514 514 506 506 488 488 470 465 465 468 468 488 488 501 505 505 512 512 518 518 498 480 480 458 458 468 468 485 485 485 469 469 465 465 478 457 457 439 439 437 430 430 436 436 496 496 484 448 448 428 428 444 444 478 462 462 440 440 421 421 419 382 382 402 402 411 411 434 442 442 444 444 425 409 409 32767
32767 32767 32767 456 462 462 466 466 463 463 454 450 450 465 465 466 466 475 492 492 522 522 534 534 528 525 525 552 552 553 553 566 584 584 563 563 576 593 593 616 616 629 629 612 643 643 672 672 700 700 710 708 708 689 689 674 674 674 663 663 668 668 645 645 607 596 596 610 610 613 613 579 568 568 597 597 592 561 561 558 558 552 552 540 520 520 501 501 488 488 470 465 465 468 468 488 488 501 505 505 512 512 518 518 498 480 480 458 458 468 468 485 485 485 469 469 465 478 478 457 457 439 439 437 430 430 436 436 496 496 484 448 448 428 428 444 444 478 462 462 440 440 421 421 419 382 382 402 402 411 411 434 442 442 444 444 425 409 409 32767
32767 32767 32767 451 454 454 457 457 443 443 442 444 444 456 456 466 466 475 492 492 522 522 534 534 528 525 525 552 552 553 553 566 584 584 563 563 576 593 593 616 616 629 629 612 643 643 672 672 700 700 710 708 708 689 689 674 674 674 663 663 668 668 645 645 607 596 596 610 610 613 613 579 568 568 597 597 592 561 561 558 558 552 552 540 520 520 501 501 488 488 476 466 466 463 463 469 469 489 484 484 500 500 511 511 508 493 493 464 464 450 450 457 467 467 461 461 468 489 489 480 480 456 456 428 406 406 429 429 489 489 482 458 458 433 433 424 424 459 464 464 450 450 430 430 405 380 380 402 402 411 411 434 442 442 444 444 425 409 409 32767
32767 32767 32767 451 454 454 457 457 443 443 442 444 444 456 456 471 471 485 506 506 521 521 520 520 505 514 514 522 522 522 522 529 540 540 555 555 598 638 638 643 643 620 620 617 653 653 647 647 661 661 669 665 665 653 653 645 645 648 658 658 632 632 612 612 629 661 661 655 655 610 610 578 585 568 597 597 592 561 561 558 558 552 552 540 520 520 501 501 488 488 476 466 466 463 463 469 469 489 484 484 500 500 511 511 508 493 493 464 464 450 457 457 467 467 461 461 468 489 489 480 480 456 456 428 406 406 429 429 489 489 482 458 458 433 433 424 424 459 464 464 450 450 430 430 405 380 380 377 377 363 365 365 369 369 415 415 424 405 405 32767
32767 32767 32767 451 454 454 457 457 443 443 442 444 444 456 456 471 471 485 506 506 521 521 520 520 505 514 514 522 522 522 529 529 540 540 555 555 598 638 638 643 643 620 620 617 653 653 647 647 661 661 669 665 665 653 653 645 645 648 658 658 632 632 612 612 629 661 661 655 655 610 578 578 585 585 599 599 603 597 597 599 599 593 593 570 545 545 536 536 506 506 484 484 484 478 478 468 468 460 466 466 479 479 485 485 481 497 497 491 491 480 455 455 457 457 474 474 489 474 474 473 473 482 482 455 422 422 409 409 437 437 482 458 458 433 433 424 424 459 464 464 450 450 430 430 405 380 380 377 377 363 365 365 369 369 415 415 424 405 405 32767
32767 32767 32767 437 439 439 429 429 425 425 432 448 448 453 453 460 460 477 491 491 492 492 492 492 524 544 544 558 558 571 573 573 548 548 559 559 583 596 596 593 593 594 594 611 646 646 629 629 617 617 621 633 633 616 616 622 645 648 658 658 632 632 612 612 629 661 661 655 655 610 578 578 585 585 599 599 603 597 597 599 599 593 593 570 545 545 536 536 506 506 484 484 484 478 478 468 468 460 466 466 479 479 485 485 481 497 497 491 491 480 455 455 457 457 474 474 489 474 474 473 473 482 482 455 422 422 409 409 437 437 436 413 413 413 413 401 401 381 378 378 388 388 383 383 393 377 377 372 372 386 366 366 340 340 394 394 389 393 393 32767
32767 32767 32767 437 439 439 429 429 425 425 432 448 448 453 453 460 460 477 491 491 492 492 492 524 524 544 544 558 558 571 573 573 548 548 559 559 583 596 596 593 593 594 594 611 646 646 629 629 617 617 621 633 633 616 616 622 622 628 633 633 644 644 654 652 652 634 634 622 622 611 620 620 641 641 652 652 670 661 661 642 642 609 609 586 555 555 533 533 519 519 499 495 495 484 484 475 475 461 448 448 451 451 463 454 454 469 469 485 485 478 453 453 470 457 474 474 489 474 474 473 473 482 482 455 422 422 409 409 437 437 436 413 413 413 413 401 401 381 378 378 388 388 383 393 393 377 377 372 372 386 366 366 340 340 394 394 389 393 393 32767
32767 32767 32767 408 417 417 426 426 431 431 453 470 470 487 487 485 485 485 489 489 482 482 510 560 560 601 601 622 622 620 607 607 580 580 575 575 587 608 608 593 593 594 594 611 646 646 629 629 617 617 621 633 633 616 616 622 622 628 633 633 644 644 654 652 652 634 634 622 622 611 620 620 641 641 652 652 670 661 661 642 642 609 609 586 555 555 533 533 519 519 499 495 495 484 484 475 475 461 448 448 451 451 463 454 454 469 469 485 485 478 453 453 470 470 487 487 462 437 437 431 431 470 470 481 468 468 436 436 388 388 378 378 378 378 378 372 372 373 361 361 353 353 347 362 362 357 357 368 368 390 390 390 340 340 379 379 384 374 374 32767
32767 32767 32767 408 417 417 426 426 431 431 453 470 470 487 487 485 485 485 489 489 482 482 510 560 560 601 601 622 622 620 607 607 580 580 575 575 587 608 608 614 614 617 617 606 617 617 624 624 594 594 596 602 602 608 608 636 636 654 655 655 649 649 634 631 631 647 647 668 668 684 696 696 714 714 730 730 725 712 712 708 708 697 697 656 583 583 536 536 522 522 510 498 498 483 483 477 477 461 448 448 451 451 463 454 454 469 469 485 485 478 453 453 470 470 487 487 462 437 437 431 431 470 470 481 468 468 436 436 388 388 378 378 378 378 378 372 373 373 361 361 353 353 347 362 362 357 357 368 368 390 390 390 340 340 379 379 384 374 374 32767
32767 32767 32767 392 411 411 435 435 454 454 468 488 488 497 497 503 514 514 525 525 522 522 510 560 560 601 601 622 622 620 607 607 580 580 575 575 587 608 608 614 614 617 617 606 617 617 624 624 594 594 596 602 602 608 608 636 654 654 655 655 649 649 634 631 631 647 647 668 668 684 696 696 714 714 730 730 725 712 712 708 708 697 697 656 583 583 536 536 522 522 510 498 498 483 483 477 473 473 460 460 446 446 451 446 446 440 440 463 463 468 437 437 438 438 448 448 431 424 424 412 412 448 448 442 427 427 404 404 394 394 400 434 434 402 402 399 439 439 396 396 410 410 383 366 366 344 344 341 341 364 377 377 330 330 379 379 384 374 374 32767
32767 32767 32767 392 411 411 435 435 454 454 468 488 488 497 497 503 514 514 525 525 522 522 531 575 575 604 604 630 630 640 647 647 643 643 625 625 661 666 666 682 682 664 664 630 615 615 595 595 573 573 579 595 595 629 629 639 626 626 611 611 603 603 617 658 658 681 681 699 699 700 721 721 759 759 759 759 750 746 746 722 708 697 697 656 583 583 536 536 522 522 510 498 498 483 483 477 473 473 460 460 446 446 451 446 446 440 440 463 463 468 437 437 438 438 448 448 431 424 424 412 412 448 448 442 427 427 404 404 394 394 400 434 434 402 402 399 439 439 396 396 410 410 383 366 366 344 344 341 341 364 377 377 330 330 350 350 363 350 350 32767
32767 32767 32767 401 416 416 435 435 454 468 468 488 488 497 497 503 514 514 525 525 522 522 531 575 575 604 604 630 630 640 647 647 643 643 625 625 661 666 666 682 682 664 664 630 615 615 595 595 573 579 579 595 595 629 629 639 626 626 611 611 603 603 617 658 658 681 681 699 699 700 721 721 759 759 759 759 750 746 746 722 722 710 710 699 630 630 573 573 530 504 504 490 490 480 480 475 474 474 464 464 453 453 448 456 456 454 454 435 435 434 432 432 423 423 434 434 481 464 464 411 411 421 421 403 432 432 452 452 476 484 484 538 538 528 528 520 499 439 396 396 410 410 383 366 366 344 344 341 341 364 377 377 330 330 350 350 363 350 350 32767
32767 32767 32767 401 416 416 432 432 444 460 460 476 476 495 495 512 526 526 541 541 560 560 574 575 575 585 585 596 596 632 670 670 706 706 707 707 748 741 741 702 702 666 666 634 618 618 604 604 571 577 577 589 589 592 592 596 606 606 617 617 622 622 633 658 658 681 681 699 699 700 721 721 759 759 759 759 750 746 746 722 722 710 710 699 630 630 573 573 530 504 504 490 490 480 480 475 474 474 464 464 453 453 448 456 456 454 454 435 435 434 432 432 423 423 434 434 481 464 464 411 411 421 421 403 432 432 452 452 476 484 484 538 538 528 528 520 499 499 470 470 469 469 452 466 466 415 415 360 360 341 330 330 316 316 317 317 323 335 335 32767
32767 32767 32767 401 416 416 432 432 444 460 460 476 476 495 495 512 526 526 541 541 560 560 574 575 575 585 585 596 596 632 670 670 706 706 707 707 748 741 741 702 702 666 666 634 618 618 604 604 571 577 577 589 589 592 592 596 606 606 617 617 622 622 633 644 644 666 666 670 670 686 718 718 754 754 747 747 709 708 708 679 679 638 638 657 608 608 560 560 524 501 501 489 489 480 480 476 483 483 485 485 477 477 474 470 470 462 462 455 455 450 431 431 440 440 466 466 499 487 487 442 411 421 421 403 432 432 452 452 476 484 484 538 538 528 528 520 499 499 470 470 469 469 452 466 466 415 415 360 360 341 330 330 316 316 317 317 323 335 335 32767
32767 32767 419 419 430 430 439 439 457 473 473 484 484 492 492 496 510 510 522 522 533 533 552 590 590 639 639 655 655 676 706 706 707 707 750 750 758 720 720 689 689 643 606 606 581 581 604 604 571 577 577 589 589 592 592 596 606 606 617 617 622 622 633 644 644 666 666 670 670 686 718 718 754 754 747 747 709 708 708 679 679 638 657 657 608 608 560 560 524 501 501 489 489 480 480 476 483 483 485 485 477 477 474 470 470 462 462 455 455 450 431 431 440 440 466 466 499 487 487 442 442 412 429 429 446 446 490 490 528 564 564 593 593 602 602 566 578 578 567 567 549 549 522 506 506 487 487 445 445 399 353 353 350 350 373 373 326 300 300 32767
32767 32767 419 419 430 430 439 439 457 473 473 484 484 492 492 496 510 510 522 522 533 533 552 590 590 639 639 655 655 676 706 706 707 707 750 750 758 720 720 689 689 643 606 606 581 581 571 571 567 553 553 573 573 612 612 643 663 663 669 669 660 660 632 612 612 618 618 653 653 671 671 671 690 690 686 686 652 653 653 632 632 594 579 579 594 594 576 576 526 503 503 494 494 494 494 510 534 534 548 548 515 515 490 490 470 462 462 455 455 450 431 431 440 440 466 466 499 487 487 442 442 412 429 429 446 446 490 490 528 564 564 593 593 602 602 566 578 578 567 567 549 549 522 506 506 487 487 445 445 399 353 353 350 350 373 373 326 300 300 32767
32767 32767 417 417 433 433 429 429 428 438 438 444 444 450 450 464 493 493 535 535 579 579 601 617 617 633 633 651 651 676 706 706 707 707 750 758 758 720 720 689 689 643 606 606 581 581 571 571 567 553 553 573 573 612 612 643 663 663 669 669 660 660 632 612 612 618 618 653 653 671 671 671 690 690 686 652 652 653 653 632 632 594 579 579 594 594 576 576 526 503 503 494 494 494 494 510 534 534 548 548 515 515 490 490 490 486 486 476 476 467 453 453 459 459 480 502 502 511 511 470 470 446 509 509 509 509 481 481 517 543 543 579 579 598 598 604 607 607 566 566 545 545 530 493 493 432 432 412 412 404 386 386 383 383 362 304 304 319 319 32767
32767 32767 417 417 433 433 429 429 428 438 438 444 444 450 450 464 493 493 535 535 579 579 601 617 617 633 633 651 651 656 644 644 658 658 677 661 661 642 642 636 636 617 598 598 583 583 565 565 548 566 566 600 600 632 632 646 649 649 667 667 665 665 662 670 670 623 623 593 593 595 607 607 636 636 640 590 590 596 596 578 578 566 551 551 532 532 540 576 526 503 503 494 494 494 494 510 534 534 548 548 515 515 490 490 490 486 486 476 476 467 453 453 459 459 480 502 502 511 511 470 470 446 509 509 509 509 481 481 517 543 543 579 579 598 598 604 607 607 566 566 545 545 530 493 493 432 432 412 412 404 386 386 383 383 362 304 304 319 319 32767
32767 32767 395 395 400 400 401 401 408 423 423 436 436 450 450 464 493 493 535 535 579 579 601 617 617 633 633 651 656 656 644 644 658 658 677 661 661 642 642 636 636 617 598 598 583 583 565 565 548 566 566 600 600 632 632 646 649 649 667 667 665 665 662 670 670 623 623 593 593 595 607 607 636 636 640 590 590 596 596 578 578 566 551 551 532 532 540 540 524 511 511 512 512 529 529 544 537 537 562 562 550 550 519 512 512 502 502 488 488 467 494 494 516 516 522 512 512 515 515 501 501 501 567 567 574 574 538 538 532 575 575 585 585 591 591 570 562 562 556 556 498 498 438 421 493 432 432 412 412 404 386 386 383 383 362 304 304 319 319 32767
32767 32767 395 395 400 400 401 401 408 423 423 436 436 446 446 458 497 497 544 544 564 564 582 583 583 579 579 603 592 592 590 590 608 608 595 592 592 599 599 597 597 564 566 566 549 549 549 549 575 607 607 626 626 637 637 634 639 639 689 689 704 704 704 681 681 624 624 569 559 559 607 607 636 636 640 590 590 596 596 578 578 566 551 551 532 532 540 540 524 511 511 512 512 529 529 544 537 537 562 562 550 550 519 512 512 502 502 488 467 467 494 494 516 516 522 512 512 515 515 501 501 501 567 567 574 574 538 538 532 575 575 585 585 591 591 570 562 562 556 556 498 498 438 421 421 378 378 360 374 374 374 374 357 357 319 299 299 341 341 32767
32767 32767 395 395 400 400 401 401 408 423 423 436 436 446 446 458 497 497 544 544 564 564 582 583 583 579 579 603 592 592 590 590 608 608 595 592 592 599 599 597 597 564 566 566 549 549 549 549 575 607 607 626 626 637 637 634 639 639 689 689 704 704 704 681 681 624 624 569 559 559 565 565 580 580 581 560 560 542 542 527 527 526 532 532 523 523 509 509 523 545 545 556 556 567 567 546 519 519 516 516 546 546 566 536 536 514 514 515 490 490 501 501 544 544 565 558 558 577 577 586 586 563 595 595 611 611 568 568 532 575 575 585 585 591 591 570 562 562 556 556 498 498 438 421 421 378 378 360 374 374 374 374 357 357 319 299 299 341 341 32767
32767 32767 387 387 393 393 410 410 422 423 423 441 441 461 461 476 515 515 548 548 538 547 547 536 536 540 540 551 552 552 546 546 552 552 561 572 572 585 585 548 548 526 534 534 557 557 589 589 595 599 599 591 591 637 637 634 639 639 689 689 704 704 704 681 681 624 624 569 559 559 565 565 580 580 581 560 560 542 542 527 527 526 532 532 523 523 509 509 523 545 545 556 556 567 567 546 519 519 516 516 546 566 566 536 536 514 514 515 490 490 501 501 544 544 565 558 558 577 577 586 586 563 595 595 611 611 568 568 574 591 591 594 594 575 575 544 539 539 489 489 457 457 449 419 419 394 394 371 339 339 329 329 329 329 290 330 330 381 381 32767
32767 32767 387 387 393 393 410 410 422 423 423 441 441 461 461 476 515 515 548 548 538 547 547 536 536 540 540 551 552 552 546 546 552 552 561 572 572 585 585 548 548 526 534 534 557 557 589 589 595 599 599 591 591 594 594 631 663 663 669 669 685 658 658 615 615 580 580 565 554 554 542 542 542 542 533 525 525 514 514 508 508 512 517 517 507 507 497 497 538 586 586 595 595 558 558 514 509 509 496 496 535 551 551 548 548 532 532 514 501 501 497 501 544 544 565 558 558 577 577 586 586 563 595 595 611 611 568 568 574 591 591 594 594 575 575 544 539 539 489 489 457 449 449 419 419 394 394 371 339 339 329 329 329 329 290 330 330 381 381 32767
32767 32767 411 411 407 407 419 419 437 453 453 474 474 509 532 532 539 539 520 520 500 510 510 519 519 509 509 520 533 533 537 537 554 554 571 578 578 585 585 548 548 526 534 534 557 557 589 589 595 599 599 591 591 594 631 631 663 663 669 669 685 658 658 615 615 580 580 565 554 554 542 542 542 542 533 525 525 514 514 508 508 512 517 517 507 507 497 497 538 586 586 595 595 558 558 514 509 509 496 496 535 551 551 548 548 532 532 514 501 501 497 497 519 519 542 565 565 595 595 623 623 607 598 598 618 618 618 618 610 601 601 606 606 596 596 586 557 557 509 509 489 484 484 452 452 427 427 410 376 376 323 323 297 297 289 360 360 395 395 32767
32767 32767 411 411 407 407 419 419 437 453 453 474 474 509 532 532 539 539 520 520 500 510 510 519 519 509 509 520 533 533 537 537 554 554 571 578 578 563 563 530 530 510 535 535 541 541 542 542 551 553 553 558 558 598 620 620 613 613 622 622 640 629 629 624 624 614 614 609 588 588 580 580 576 576 562 540 540 519 519 503 503 498 495 495 489 489 485 485 511 560 560 580 580 549 514 514 509 509 496 496 535 551 551 548 548 532 532 514 501 501 497 497 519 519 542 565 565 595 595 623 623 607 598 598 618 618 618 618 610 601 601 606 606 596 586 586 557 557 509 509 489 484 484 452 452 427 427 410 376 376 323 323 297 297 289 360 360 395 395 32767
32767 32767 443 443 450 450 451 457 457 460 460 477 477 515 526 526 509 509 485 485 500 510 510 519 519 509 509 520 533 533 537 537 554 554 571 578 578 563 563 530 530 510 535 535 541 541 542 542 551 553 553 558 558 598 620 620 613 613 622 622 640 629 629 624 624 614 614 609 588 588 580 580 576 576 562 540 540 519 519 503 503 498 495 495 489 489 485 485 511 560 560 580 580 549 511 511 488 488 477 477 502 540 540 553 553 556 556 530 537 537 525 525 512 512 532 565 565 584 584 562 562 558 570 570 592 592 627 627 615 573 573 559 559 558 542 542 532 532 506 506 476 455 455 456 456 455 455 418 380 380 354 323 297 297 289 360 360 395 395 32767
32767 32767 443 443 450 450 451 457 457 460 460 477 477 515 526 526 509 509 485 485 483 496 496 494 494 517 517 548 562 562 554 554 551 551 560 561 561 538 538 511 511 502 504 504 506 506 539 536 536 536 536 549 549 575 596 596 622 622 630 630 639 655 655 685 685 699 699 678 619 619 586 586 573 573 548 539 539 519 519 503 503 498 495 495 489 489 485 511 511 560 560 580 580 549 511 511 488 488 477 477 502 540 540 553 553 556 556 530 537 537 525 525 512 512 532 565 565 584 584 562 562 558 570 570 592 592 627 627 615 573 573 559 559 558 542 542 532 532 506 506 476 455 455 456 456 455 455 418 380 380 354 354 315 315 284 338 338 352 352 32767
32767 32767 447 443 450 450 451 457 457 460 460 477 477 515 526 526 509 509 485 485 483 496 496 494 494 517 517 548 562 562 554 554 551 551 560 561 561 538 538 511 511 502 504 504 506 506 539 536 536 536 536 549 549 575 596 596 622 622 630 630 639 655 655 685 685 699 699 678 619 619 586 586 573 573 548 539 539 519 519 522 522 539 554 554 535 535 493 488 488 541 541 532 532 551 523 523 495 495 469 469 491 504 504 531 531 561 561 550 549 549 549 549 541 541 551 573 573 552 552 525 525 528 555 555 588 588 605 579 579 547 547 521 521 520 513 542 532 532 506 506 476 455 455 456 456 455 455 418 380 380 354 354 315 315 284 338 338 352 352 32767
32767 32767 447 447 445 445 443 446 446 446 446 474 474 487 473 473 477 477 475 475 470 503 503 530 530 532 532 528 535 535 545 545 547 547 521 519 519 536 536 531 547 547 528 528 495 495 503 522 522 544 544 575 575 605 640 640 675 675 696 696 639 655 655 685 685 699 699 678 619 619 586 586 573 573 548 539 539 519 519 522 522 539 554 554 535 535 493 488 488 541 541 532 532 551 523 523 495 495 469 469 491 504 504 531 531 561 561 550 549 549 549 549 541 541 551 573 573 552 552 525 525 528 555 555 588 588 605 579 579 547 547 521 521 520 513 513 489 489 487 487 476 465 465 418 418 403 403 372 338 338 311 311 302 302 282 276 276 267 267 32767
32767 32767 447 447 445 445 443 446 446 446 446 474 474 487 473 473 477 477 475 475 470 503 503 530 530 532 532 528 535 535 545 545 547 547 521 519 519 536 536 531 547 547 528 528 495 495 503 522 522 544 544 575 575 605 640 640 675 675 696 696 714 742 742 767 767 709 709 631 594 594 568 568 561 561 544 532 532 525 525 548 582 582 605 605 543 543 503 475 475 502 502 490 490 493 484 484 488 488 460 460 468 486 486 503 503 529 529 558 574 574 570 570 567 567 569 559 559 535 552 525 528 528 555 555 588 588 605 579 579 547 547 521 521 520 513 513 489 489 487 487 476 465 465 418 418 403 403 372 338 338 311 311 302 302 282 276 276 267 267 32767
32767 32767 429 429 415 415 412 414 414 439 439 457 457 466 453 453 451 451 463 463 505 504 504 494 494 520 520 546 542 542 515 515 495 517 517 561 561 550 550 528 508 508 492 492 495 495 503 522 522 544 544 575 575 605 640 640 675 675 696 696 714 742 742 767 767 709 709 631 594 594 568 568 561 561 544 532 532 525 525 548 582 582 605 605 543 543 503 475 475 502 502 490 490 493 484 484 488 488 460 460 468 486 486 503 503 529 529 558 574 574 570 570 567 567 569 559 559 535 535 499 532 532 563 563 565 565 554 540 540 528 528 504 504 479 470 470 445 445 436 436 454 429 429 424 424 375 375 348 354 354 391 391 400 400 356 298 298 254 254 32767
32767 32767 429 429 415 415 412 414 414 439 439 457 457 466 453 453 451 451 463 463 505 504 504 494 494 520 520 546 542 542 515 515 495 517 517 561 561 550 550 528 508 508 492 492 497 497 516 538 538 564 564 598 598 627 672 672 757 757 813 813 805 795 795 763 763 714 714 649 608 608 594 594 586 556 556 541 541 561 561 590 614 614 615 615 583 583 540 485 485 472 472 466 466 463 454 454 456 456 445 445 449 486 486 503 503 529 529 558 574 574 570 570 567 567 569 559 559 535 535 499 532 532 563 563 565 565 554 540 540 528 528 504 504 479 470 470 445 445 436 436 454 429 429 424 424 375 375 348 354 354 391 391 400 400 356 298 298 254 254 32767
32767 32767 389 389 393 393 398 414 414 448 448 465 465 440 440 440 467 467 470 470 460 468 468 495 495 507 507 546 542 542 515 515 495 517 517 561 561 550 550 528 508 508 492 492 497 497 516 538 538 564 564 598 598 627 672 672 757 757 813 813 805 795 795 763 763 714 714 649 608 608 594 594 586 556 556 541 541 561 561 590 614 614 615 615 583 583 540 485 485 472 472 466 466 463 454 454 456 456 445 445 449 482 482 497 497 531 531 550 551 551 530 530 544 555 555 558 558 532 532 493 487 487 510 510 516 516 524 501 501 516 516 499 499 484 470 470 457 457 412 412 392 375 375 388 388 381 381 373 389 389 421 421 416 359 359 298 298 259 259 32767
32767 32767 389 389 393 393 398 414 414 448 448 465 465 440 440 440 467 467 470 470 460 468 468 495 495 507 505 505 494 494 478 478 511 541 541 517 517 485 485 473 483 483 494 494 514 514 546 554 554 581 581 633 633 697 767 767 788 788 789 789 729 693 693 678 678 664 628 628 601 601 603 603 599 563 563 572 572 593 593 595 574 574 573 573 583 583 540 485 485 472 472 466 466 463 454 454 456 456 445 445 449 482 482 497 497 531 531 550 551 551 530 530 544 555 555 558 558 532 532 493 487 487 510 510 516 516 524 501 501 516 516 499 499 484 470 470 457 457 412 412 392 375 375 388 388 381 381 373 389 389 421 421 416 359 359 298 298 259 259 32767
32767 32767 409 409 428 428 429 435 435 464 448 465 465 440 440 440 467 467 470 470 460 468 468 495 495 507 505 505 494 494 478 478 511 541 541 517 517 485 485 473 483 483 494 494 514 514 546 554 554 581 581 633 633 697 767 767 788 788 789 789 729 693 693 678 678 664 628 628 601 601 603 603 599 563 563 572 572 593 593 595 574 574 573 573 550 550 519 501 501 511 511 510 510 509 494 494 472 472 443 443 431 454 454 482 482 499 497 497 480 480 494 494 514 525 525 524 524 529 529 500 481 481 460 460 490 490 486 470 470 490 490 506 506 491 478 478 466 466 446 446 397 358 375 388 388 381 381 373 389 389 421 421 416 359 359 298 298 259 259 32767
32767 32767 409 409 428 428 429 435 435 464 464 441 441 434 446 446 436 436 455 470 470 479 479 473 473 470 468 468 463 463 490 490 517 499 499 476 476 456 456 475 498 498 527 527 536 536 568 605 605 647 647 690 690 760 776 776 764 764 691 691 655 623 623 605 605 591 587 587 601 601 603 603 599 563 563 572 572 593 593 595 574 574 573 573 550 550 519 501 501 511 511 510 510 509 494 494 472 472 443 443 431 454 454 482 482 499 497 497 480 480 494 494 514 525 525 524 524 529 529 500 481 481 460 460 490 490 486 470 470 490 490 506 506 491 478 478 466 466 446 446 397 358 358 369 369 384 402 402 418 418 398 398 359 325 325 293 293 276 276 32767
32767 32767 409 409 428 428 429 435 435 464 464 441 441 434 446 446 436 436 455 470 470 479 479 473 473 470 468 468 463 463 490 490 517 499 499 476 476 456 456 475 498 498 527 527 536 536 568 605 605 647 647 690 690 760 776 776 764 764 691 655 655 623 623 605 605 591 587 587 562 562 587 587 609 587 587 590 590 563 563 540 538 538 514 514 511 511 519 518 518 483 483 507 507 490 488 488 480 480 454 427 427 425 425 447 447 440 433 433 471 471 502 502 519 530 530 493 493 501 501 496 462 462 444 444 463 490 486 470 470 490 490 506 506 491 478 478 466 466 446 446 397 358 358 369 369 384 402 402 418 418 398 398 359 325 325 293 293 276 276 32767
32767 32767 428 428 434 434 440 437 437 423 423 427 444 444 413 413 448 448 476 462 462 455 455 445 445 445 449 449 463 463 495 495 477 455 455 450 450 452 452 474 515 515 537 537 575 575 602 610 610 658 658 690 690 760 776 776 764 764 691 655 655 623 623 605 605 591 587 587 562 562 587 587 609 587 587 590 590 563 563 540 538 538 514 514 511 511 519 518 518 483 483 507 507 490 488 488 480 480 454 427 427 425 425 447 447 440 433 433 471 471 502 502 519 530 530 493 493 501 501 496 462 462 444 444 463 463 486 472 472 446 446 462 462 480 473 473 456 456 418 368 368 344 344 341 341 391 427 427 430 430 386 386 367 319 319 286 286 278 278 32767
32767 32767 428 428 434 434 440 437 437 423 423 427 444 444 413 413 448 448 476 462 462 455 455 445 445 445 449 449 463 463 495 495 477 455 455 450 450 452 452 474 515 515 537 537 575 575 602 610 610 658 658 699 686 686 640 640 642 642 610 575 575 581 581 583 583 555 539 539 549 549 603 603 631 580 580 560 560 535 535 515 495 495 490 490 476 476 475 490 490 464 464 450 450 467 492 492 495 495 469 442 442 432 432 422 422 403 392 392 471 471 502 502 519 530 530 493 493 501 501 496 462 462 444 444 463 463 486 472 472 446 446 462 462 480 473 473 456 456 418 368 368 344 344 341 341 391 427 427 430 430 386 386 367 319 319 286 286 278 278 32767
32767 32767 413 413 418 409 409 404 404 417 417 436 408 408 403 403 444 444 438 423 423 430 430 430 430 432 444 444 483 483 496 496 452 431 455 450 450 452 452 474 515 515 537 537 575 575 602 610 610 658 658 699 686 686 640 640 642 642 610 575 575 581 581 583 583 555 539 539 549 549 603 603 631 580 580 560 560 535 535 515 495 495 490 490 476 476 475 490 490 464 464 450 467 467 492 492 495 495 469 442 442 432 432 422 422 403 392 392 425 425 436 436 440 484 484 488 488 461 461 449 442 442 436 436 414 414 442 462 462 434 434 451 451 454 431 431 418 418 401 350 350 342 342 326 326 370 396 396 415 415 378 378 339 291 291 269 269 264 264 32767
32767 32767 413 413 418 409 409 404 404 417 417 436 408 408 403 403 444 444 438 423 423 430 430 430 430 432 444 444 483 483 496 496 452 431 431 445 445 452 452 473 500 500 545 545 596 654 654 632 632 602 602 606 596 596 564 564 547 547 542 516 516 516 516 519 519 519 522 522 555 555 603 603 599 568 568 550 550 547 547 524 516 516 516 516 507 507 470 451 451 446 446 450 467 467 492 492 495 495 469 442 442 432 432 422 422 403 392 392 425 425 436 436 440 484 484 488 488 461 461 449 442 442 436 436 414 414 442 462 462 434 434 451 454 454 431 431 418 418 401 350 350 342 342 326 326 370 396 396 415 415 378 378 339 291 291 269 269 264 264 32767
32767 32767 385 385 390 398 398 415 415 422 422 419 388 388 395 395 422 444 438 423 423 430 430 430 430 432 444 444 483 483 496 496 452 431 431 445 445 452 452 473 500 500 545 545 596 654 654 632 632 602 602 606 596 596 564 564 547 547 542 516 516 516 516 519 519 519 522 522 555 555 603 603 599 568 568 550 550 547 547 524 516 516 516 516 507 470 470 451 451 446 446 431 445 445 491 491 497 497 461 451 451 478 478 485 485 433 407 407 385 385 381 381 365 434 434 450 450 444 444 451 412 412 397 397 392 392 449 451 451 412 412 411 392 392 364 364 357 357 377 348 348 315 315 308 308 333 358 358 361 415 378 378 339 291 291 269 269 264 264 32767
32767 32767 385 385 390 398 398 415 415 422 422 419 388 388 395 395 422 422 429 429 429 421 421 421 421 438 472 472 492 492 452 452 420 422 422 434 434 448 448 478 508 508 589 589 657 642 642 565 565 541 541 551 543 543 523 523 499 499 489 488 488 508 508 519 519 529 536 536 562 562 603 603 588 568 568 550 550 547 547 524 516 516 516 516 507 470 470 451 451 446 446 431 445 445 491 491 497 497 461 451 451 478 478 485 485 433 407 407 385 385 381 381 365 434 434 450 450 444 444 451 412 412 397 397 392 449 449 451 451 412 412 411 392 392 364 364 357 357 377 348 348 315 315 308 308 333 358 358 361 361 325 325 291 269 269 260 260 259 259 32767
32767 32767 385 385 390 398 398 415 415 422 422 419 388 388 395 395 422 422 429 429 429 421 421 421 421 438 472 472 492 492 452 452 420 422 422 434 434 448 478 478 508 508 589 589 657 642 642 565 565 541 541 551 543 543 523 523 499 499 489 488 488 508 508 519 519 529 536 536 562 562 603 603 588 568 568 536 536 523 523 517 504 504 489 489 479 466 466 487 487 490 490 444 406 406 428 428 463 463 473 502 502 525 525 529 529 486 458 458 436 436 416 416 359 380 380 402 402 433 433 421 422 422 383 383 379 408 408 391 391 403 403 394 392 392 364 364 357 357 377 348 348 315 315 308 308 333 358 358 361 361 325 325 291 269 269 260 260 259 259 32767
32767 32767 370 370 400 390 390 408 408 397 397 379 380 380 395 395 416 416 426 422 422 430 430 434 434 458 460 460 428 428 407 407 415 442 442 468 468 485 494 494 552 552 637 637 658 567 567 509 509 498 498 494 502 502 481 481 463 463 489 488 488 508 508 519 519 529 536 536 562 562 603 603 588 568 568 536 536 523 517 517 504 504 489 489 479 466 466 487 487 490 490 444 406 406 428 428 463 463 473 502 502 525 525 529 529 486 458 458 436 436 416 416 359 380 380 402 402 433 433 421 422 422 383 383 379 408 408 391 391 403 403 394 371 371 358 358 329 329 354 327 327 312 312 292 292 294 301 301 302 302 285 285 273 262 262 255 255 252 252 32767
32767 32767 370 370 400 390 390 408 408 397 397 379 380 380 395 395 416 416 426 422 422 430 430 434 434 458 460 460 428 428 407 415 415 442 442 468 468 485 494 494 552 552 637 637 658 567 567 509 509 498 498 494 502 502 481 481 463 463 469 490 490 501 501 506 506 531 577 577 605 605 615 615 576 534 534 508 508 506 516 516 526 526 501 501 489 493 493 517 517 496 496 455 413 413 391 391 426 426 472 516 516 520 520 503 503 495 463 463 415 415 405 405 354 386 386 402 402 433 421 421 422 422 383 383 379 408 408 391 391 403 403 394 371 371 358 358 329 329 354 327 327 312 312 292 292 294 301 301 302 302 285 285 273 262 262 255 255 252 252 32767
32767 32767 375 375 401 387 387 377 377 368 368 373 391 391 400 400 404 404 403 410 410 421 421 422 422 415 402 402 397 397 413 449 449 497 497 544 544 557 544 544 599 552 637 637 658 567 567 509 509 498 498 494 502 502 481 481 463 463 469 490 490 501 501 506 506 531 577 577 605 605 615 576 576 534 534 508 508 506 516 516 526 526 501 501 489 493 493 517 517 496 496 455 413 413 391 391 426 426 472 516 516 520 520 503 503 495 463 463 415 415 405 405 354 386 386 419 419 409 389 389 387 387 376 376 353 360 360 363 363 366 366 349 345 345 329 329 309 309 330 310 310 289 289 281 281 278 282 282 284 284 270 270 264 263 263 254 254 246 32767 32767
32767 32767 375 375 401 387 387 377 377 368 368 373 391 391 400 400 404 404 403 410 410 421 421 422 415 415 402 402 397 397 413 449 449 497 497 544 544 557 544 544 599 599 627 627 626 551 551 492 492 465 465 457 460 460 450 450 449 449 490 521 521 512 512 529 529 560 576 576 621 621 598 591 591 565 565 528 528 495 472 472 496 496 525 525 515 495 495 497 497 477 477 459 410 410 381 381 379 379 415 516 516 520 520 503 503 495 463 463 415 415 405 354 354 386 386 419 419 409 389 389 387 387 376 376 353 360 360 363 363 366 366 349 345 345 329 329 309 309 330 310 310 289 289 281 281 278 282 282 284 284 270 270 264 263 263 254 254 246 32767 32767
32767 32767 391 391 405 384 384 363 363 365 365 380 391 391 393 393 372 372 368 390 390 398 398 386 415 415 402 402 397 397 413 449 449 497 497 544 544 557 544 544 599 599 627 627 626 551 551 492 492 465 465 457 460 460 450 450 449 449 490 521 521 512 512 529 560 560 576 576 621 621 598 591 591 565 565 528 528 495 472 472 496 496 525 525 515 495 495 497 497 477 477 459 410 410 381 381 379 379 415 440 440 458 458 462 462 445 416 416 417 417 382 344 344 352 352 384 384 370 376 376 374 374 341 341 334 342 342 325 325 331 331 318 318 318 299 299 290 290 292 292 292 285 285 275 275 266 269 269 274 274 261 251 251 250 250 246 254 246 32767 32767
32767 32767 391 391 405 384 384 363 363 365 365 380 391 391 393 393 372 368 368 390 390 398 398 386 381 381 391 391 414 414 443 485 485 545 545 631 631 645 619 619 600 600 532 532 519 507 507 473 473 449 449 437 433 433 432 432 466 466 508 487 487 490 490 532 587 587 597 597 570 570 529 552 552 535 535 495 495 466 449 449 449 449 525 525 515 495 495 497 497 477 477 459 410 410 381 381 379 379 415 440 440 458 458 462 445 445 416 416 417 417 382 344 344 352 352 384 384 370 376 376 374 374 341 341 334 342 342 325 325 331 331 318 318 318 299 299 290 290 292 292 292 285 285 275 275 266 269 269 274 274 261 251 251 250 250 246 246 242 32767 32767
32767 32767 385 385 380 356 356 372 363 365 365 380 391 391 393 393 372 368 368 390 390 398 398 386 381 381 391 391 414 414 443 485 485 545 545 631 631 645 619 619 600 600 532 532 519 507 507 473 473 449 449 437 433 433 432 432 466 508 508 487 487 490 490 532 587 587 597 597 570 570 529 552 552 535 535 495 495 466 449 449 449 449 468 468 468 462 462 439 439 451 451 461 436 436 415 415 373 373 360 387 387 438 438 418 420 420 395 395 401 401 390 337 337 346 346 364 364 344 345 345 335 335 331 331 316 319 319 329 329 313 313 302 287 287 283 283 274 274 271 292 292 285 285 275 275 266 269 269 274 274 261 251 251 250 250 246 246 242 32767 32767
32767 32767 385 385 380 356 356 372 372 384 392 392 386 386 375 375 367 367 367 375 375 384 384 396 411 411 423 423 435 435 455 498 498 556 556 624 624 595 577 577 541 541 481 481 454 452 452 441 441 435 435 438 420 420 448 448 472 461 461 463 463 493 493 538 599 587 597 597 570 570 529 552 552 535 535 495 495 466 449 449 449 449 468 468 468 462 462 439 439 451 451 461 436 436 415 415 373 373 360 387 387 438 438 418 420 420 395 395 401 401 390 337 337 346 346 364 364 344 345 345 335 335 331 331 316 319 319 329 329 313 313 302 287 287 283 283 274 274 271 272 272 271 271 266 259 259 262 262 258 258 247 247 247 240 240 237 237 233 32767 32767
32767 32767 385 385 380 356 356 372 372 384 392 392 386 386 375 375 367 367 367 375 375 384 384 396 411 411 423 423 435 435 455 498 498 556 556 624 624 595 577 577 541 541 481 481 454 452 452 441 441 435 435 438 420 420 448 448 472 461 461 463 463 493 493 538 599 599 584 584 564 564 518 484 484 496 496 476 476 466 487 487 466 466 422 422 419 418 418 417 417 438 438 426 414 414 388 388 389 369 369 342 342 371 371 381 395 395 396 396 365 365 353 324 324 376 376 385 385 361 334 334 322 322 313 331 316 319 319 329 329 313 313 302 287 287 283 283 274 274 271 272 272 271 271 266 259 259 262 262 258 258 247 247 247 240 240 237 237 233 32767 32767
32767 32767 358 358 345 357 357 376 376 378 363 363 353 353 354 354 367 383 383 402 402 400 400 422 435 435 457 457 479 479 492 534 534 603 603 597 597 535 497 497 464 464 447 447 430 418 418 424 441 435 438 438 420 420 448 448 472 461 461 463 463 493 493 538 599 599 584 584 564 564 518 484 484 496 496 476 476 466 487 487 466 466 422 422 419 418 418 417 417 438 438 426 414 414 388 388 389 369 369 342 342 371 371 381 395 395 396 396 365 365 353 324 324 376 376 385 385 361 334 334 322 322 313 313 302 302 302 324 324 323 323 313 292 292 279 279 266 258 258 258 258 255 255 255 250 250 253 253 254 254 240 233 233 227 227 229 229 225 32767 32767
32767 32767 358 345 345 357 357 376 376 378 363 363 353 353 354 354 367 383 383 402 402 400 400 422 435 435 457 457 479 479 492 534 534 603 603 597 597 535 497 497 464 464 447 447 430 418 418 424 424 432 420 420 414 414 438 438 425 432 432 456 456 494 494 551 620 620 641 641 589 589 541 490 490 442 442 443 443 435 441 441 439 439 420 420 396 415 415 413 413 386 379 379 374 374 388 388 359 355 355 343 343 337 337 385 373 373 396 396 365 365 353 324 324 376 376 385 385 361 334 334 322 322 313 313 302 302 302 324 324 323 323 313 292 292 279 279 266 258 258 258 258 255 255 255 250 250 253 253 254 254 240 233 233 227 227 229 229 225 32767 32767
32767 32767 325 333 333 354 354 367 367 357 344 344 353 353 379 379 389 410 410 428 428 422 422 439 474 474 521 521 576 576 587 534 534 603 603 597 597 535 497 497 464 464 447 430 430 418 418 424 424 432 420 420 414 414 438 438 425 432 432 456 456 494 494 551 620 620 641 641 589 589 541 490 490 442 442 443 443 435 441 441 439 439 420 420 396 415 415 413 413 386 379 379 374 374 388 388 359 355 355 343 343 337 337 385 373 373 357 357 341 341 338 317 317 362 362 404 404 371 327 327 336 336 323 323 307 290 290 302 302 296 277 277 273 273 276 276 279 258 258 248 248 244 244 243 241 241 247 247 253 253 251 240 240 229 229 224 224 216 32767 32767
32767 32767 325 333 333 354 354 367 367 357 344 344 353 353 379 379 389 410 410 428 428 422 422 439 474 474 521 521 576 576 587 570 570 567 567 570 570 549 503 503 454 454 421 405 405 402 402 407 407 416 410 410 403 403 400 400 399 432 432 474 474 532 532 559 554 554 572 572 592 592 544 471 471 433 433 404 404 402 415 415 419 419 411 386 386 389 389 416 416 386 379 379 374 374 388 388 359 355 355 343 343 337 337 385 373 373 357 357 341 341 338 317 317 362 362 404 404 371 327 327 336 336 323 323 307 290 290 302 302 296 277 277 273 273 276 276 279 258 258 248 248 244 244 243 241 241 247 247 253 253 251 240 240 229 229 224 224 216 32767 32767
32767 32767 346 350 350 353 353 351 351 343 343 343 385 385 396 379 389 410 410 428 428 422 422 439 474 474 521 521 576 576 587 570 570 567 567 570 549 549 503 503 454 454 421 405 405 402 402 407 407 416 410 410 403 403 400 400 399 432 432 474 474 532 532 559 554 554 572 572 592 592 544 471 471 433 433 404 404 402 415 415 419 419 411 386 386 389 389 416 416 413 386 386 354 354 349 349 341 329 329 321 321 339 339 374 394 394 366 366 324 324 308 310 310 339 339 346 346 300 281 281 270 270 269 269 279 288 288 271 271 271 276 276 259 259 256 256 259 255 255 251 251 241 241 235 234 234 247 247 253 253 251 240 240 229 229 224 224 216 32767 32767
32767 32767 346 350 350 353 353 351 351 343 343 343 385 385 396 396 405 418 418 433 433 456 456 463 499 499 547 547 581 581 546 524 524 480 480 483 471 471 445 445 423 423 395 388 388 390 390 388 388 391 412 412 399 399 378 378 392 421 421 474 474 528 528 498 459 459 470 470 511 511 513 496 471 433 433 404 402 402 415 415 419 419 411 386 386 389 389 416 416 413 386 386 354 354 349 349 341 329 329 321 321 339 339 374 394 394 366 366 324 324 308 310 310 339 339 346 346 300 281 281 270 270 269 279 279 288 288 271 271 271 276 276 259 259 256 256 259 255 255 251 251 241 241 235 234 234 245 245 254 254 255 241 241 229 229 224 224 218 32767 32767
32767 32767 346 350 350 353 353 351 351 343 343 343 385 385 396 396 405 418 418 433 433 456 456 463 499 499 547 547 581 546 546 524 524 480 480 483 471 471 445 445 423 423 395 388 388 390 390 388 388 391 412 412 399 399 378 378 392 421 421 474 474 528 528 498 459 459 470 470 511 511 513 496 496 451 451 412 388 388 363 363 379 379 413 391 391 365 365 403 403 410 384 384 363 363 364 364 353 321 321 308 308 334 334 373 381 381 344 344 319 319 304 303 303 292 292 287 287 290 273 273 252 252 244 254 254 278 278 286 286 262 276 276 259 259 256 256 259 255 255 251 251 241 241 235 234 234 245 245 254 254 255 241 241 229 229 224 224 218 32767 32767
32767 32767 345 336 336 334 334 327 327 331 354 354 386 386 394 394 402 413 413 433 433 461 461 489 515 515 531 531 512 471 471 487 487 476 476 426 425 425 412 412 392 392 375 377 377 375 375 376 376 402 401 401 388 388 375 378 392 421 421 474 474 528 528 498 459 459 470 470 511 511 513 496 496 451 451 412 388 388 363 363 379 379 413 391 391 365 365 403 403 410 384 384 363 363 364 364 353 321 321 308 308 334 334 373 381 381 344 344 319 319 304 303 303 292 292 287 290 290 273 273 252 252 244 254 254 278 278 286 286 262 255 255 254 254 252 252 241 238 238 236 236 234 234 230 227 227 234 234 235 235 231 228 228 224 224 223 223 217 32767 32767
32767 32767 345 336 336 334 334 327 327 331 354 354 386 386 394 394 402 413 413 433 433 461 489 489 515 515 531 531 512 471 471 487 487 476 476 426 425 425 412 412 392 392 375 377 377 375 375 376 376 402 401 401 388 388 375 375 373 395 395 439 439 445 445 434 401 401 414 414 457 461 461 425 425 410 410 401 397 397 375 375 356 356 351 354 354 397 397 434 434 421 400 400 396 396 379 379 350 311 311 313 313 354 354 385 383 383 358 358 351 351 359 367 367 292 292 287 290 290 273 273 252 252 244 254 254 278 278 286 286 262 255 255 254 254 252 252 241 238 238 236 236 234 234 230 227 227 234 234 235 235 231 228 228 224 224 223 223 217 32767 32767
32767 32767 326 315 315 322 322 342 342 365 381 381 382 382 389 389 399 412 412 426 426 446 479 479 490 490 460 460 451 432 432 427 427 418 418 396 394 394 387 412 392 392 375 377 377 375 375 376 376 402 401 401 388 388 375 375 373 395 395 439 439 445 445 434 401 401 414 414 457 461 461 425 425 410 410 401 397 397 375 375 356 356 351 354 354 397 397 434 434 421 400 400 396 396 379 379 350 311 311 313 313 354 354 385 383 383 358 358 351 359 359 367 367 342 342 322 282 282 243 243 233 233 244 259 259 283 283 291 291 271 253 253 243 243 249 249 239 229 229 225 225 225 225 229 220 220 224 224 222 222 217 213 213 211 211 221 223 223 32767 32767
32767 32767 326 315 315 322 322 342 342 365 381 381 382 382 389 399 399 412 412 426 426 446 479 479 490 490 460 460 451 432 432 427 427 418 418 396 394 394 387 387 374 374 369 364 364 363 363 378 378 409 405 405 422 422 404 404 375 361 361 368 368 380 375 375 382 382 406 406 431 399 399 379 379 363 363 356 365 365 379 379 357 357 335 389 389 438 438 419 419 392 347 347 365 365 334 334 350 311 311 313 313 354 354 385 383 383 358 358 351 359 359 367 367 342 342 322 282 282 243 243 233 233 244 259 259 283 283 291 291 271 253 253 243 243 249 249 239 229 229 225 225 225 225 229 220 220 224 224 222 222 217 213 213 211 211 221 223 223 32767 32767
32767 32767 321 339 339 358 358 372 372 375 375 375 376 376 386 404 404 440 440 466 466 454 479 479 490 490 460 460 451 432 432 427 427 418 418 396 394 394 387 387 374 374 369 364 364 363 363 378 378 409 405 405 422 422 404 404 375 361 361 368 368 380 375 375 382 382 406 406 431 399 399 379 379 363 363 356 365 365 379 379 357 357 335 389 389 438 438 419 419 392 347 347 365 365 334 334 306 291 291 313 313 361 361 389 394 394 387 387 393 400 400 372 372 323 323 280 248 248 226 226 231 231 246 263 263 266 266 260 260 250 243 243 235 235 241 241 231 223 223 219 219 216 216 223 217 217 214 214 213 210 210 206 206 206 211 221 223 223 32767 32767
32767 32767 321 339 339 358 358 372 372 375 375 375 376 376 386 404 404 440 440 466 466 454 485 485 458 458 417 417 408 399 399 389 389 374 374 368 376 376 373 373 363 363 363 351 351 371 371 411 411 436 440 440 438 438 407 390 390 378 378 362 362 342 350 350 356 356 364 364 371 352 352 341 341 344 344 344 339 339 341 379 357 357 335 389 389 438 438 419 419 392 347 347 365 365 334 334 306 291 291 313 313 361 389 389 394 394 387 387 393 400 400 372 372 323 323 280 248 248 226 226 231 231 246 263 263 266 266 260 260 250 243 243 235 235 241 241 231 223 223 219 219 216 216 223 217 217 214 214 213 210 210 206 206 206 206 207 212 212 32767 32767
32767 32767 354 364 364 358 358 372 375 375 375 375 376 376 386 404 404 440 440 466 466 454 485 485 458 458 417 417 408 399 399 389 389 374 374 368 376 376 373 373 363 363 363 351 351 371 371 411 411 436 440 440 438 438 407 390 390 378 378 362 362 342 350 350 356 356 364 364 371 352 352 341 341 344 344 344 339 339 341 341 325 325 333 391 391 418 418 393 393 351 315 315 299 299 287 287 277 307 307 334 334 358 370 370 358 358 387 387 380 332 332 297 297 266 266 245 233 233 222 222 224 224 231 237 237 235 235 233 233 230 229 229 226 226 232 232 231 223 223 219 219 216 223 223 217 217 214 214 213 210 210 206 206 206 206 207 212 212 32767 32767
32767 32767 354 364 364 367 367 367 365 365 368 368 377 377 391 419 419 470 470 485 485 455 423 423 404 404 386 386 381 377 377 365 365 365 365 351 361 361 370 370 365 365 345 350 350 373 373 397 441 441 485 485 471 471 472 450 450 427 427 400 400 356 350 350 356 356 364 364 371 352 352 341 341 344 344 344 339 339 341 341 325 325 333 391 391 418 418 393 393 351 315 315 299 299 287 277 277 307 307 334 334 358 370 370 358 358 387 387 380 332 332 297 297 266 266 245 233 233 222 222 224 224 231 237 237 235 235 233 233 230 229 229 226 226 232 232 231 224 224 215 215 210 212 212 213 213 208 208 208 206 206 203 203 202 202 205 199 199 32767 32767
32767 354 354 364 364 367 367 367 365 365 368 368 377 377 391 419 419 470 470 485 485 455 423 423 404 404 386 386 381 377 377 365 365 365 365 351 361 361 370 370 365 365 345 350 350 373 373 397 441 441 485 485 471 471 472 450 450 427 427 400 400 356 333 333 326 326 327 327 318 322 322 324 324 354 354 367 347 347 316 316 302 302 329 377 377 401 401 389 389 347 295 295 268 268 257 280 280 308 308 329 329 363 331 331 330 330 377 377 358 291 291 257 257 243 243 232 219 219 215 215 224 224 231 237 237 235 235 233 233 230 229 229 226 226 232 232 231 224 224 215 215 210 212 212 213 213 208 208 208 206 206 203 203 202 202 205 199 199 32767 32767
32767 343 343 355 355 358 358 359 368 368 385 385 392 392 405 444 444 469 469 433 433 402 377 377 361 361 358 358 361 362 362 355 355 356 356 344 335 335 334 334 342 330 330 340 340 360 373 397 441 441 485 485 471 471 472 450 450 427 427 400 400 356 333 333 326 326 327 327 318 322 322 324 324 354 354 367 347 347 316 316 302 302 329 377 377 401 401 389 347 347 295 295 268 268 257 280 280 308 308 329 329 363 331 331 330 330 377 377 358 291 291 257 257 243 243 232 219 219 215 215 222 222 216 212 212 215 215 217 217 218 218 218 217 217 221 224 224 216 216 209 209 205 203 203 203 203 204 204 207 207 207 202 202 196 196 197 195 195 32767 32767
32767 343 343 355 355 358 358 359 368 368 385 385 392 392 405 444 444 469 469 433 433 402 377 377 361 361 358 358 361 362 362 355 355 356 356 344 335 335 334 334 342 330 330 340 340 360 360 390 433 433 490 490 524 524 472 431 431 416 416 390 390 365 352 352 341 341 321 321 304 305 305 327 327 343 343 339 330 330 297 297 296 296 335 373 373 388 388 353 312 312 267 267 246 246 261 282 282 292 292 322 322 334 300 331 330 330 377 377 358 291 291 257 257 243 243 232 219 219 215 215 222 222 216 212 212 215 215 217 217 218 218 218 217 217 221 224 224 216 216 209 209 205 203 203 203 203 204 204 207 207 207 202 202 196 196 197 195 195 32767 32767
32767 339 339 348 348 357 357 386 420 420 437 437 422 422 437 444 444 417 417 388 388 371 360 360 347 347 346 346 351 362 362 355 355 356 344 344 335 335 334 334 342 330 330 340 340 360 360 390 433 433 490 490 524 524 472 431 431 416 416 390 390 365 352 352 341 341 321 321 304 305 305 327 327 343 343 339 330 330 297 297 296 335 335 373 373 388 388 353 312 312 267 267 246 246 261 282 282 292 292 322 322 334 300 300 313 313 339 339 309 271 271 246 246 231 231 222 212 212 212 212 210 210 201 201 201 203 203 206 207 207 209 209 210 210 212 218 218 215 215 209 209 199 197 197 197 197 199 199 203 204 204 201 201 198 198 192 185 185 32767 32767
32767 339 339 348 348 357 357 386 420 420 437 437 422 422 437 444 444 417 417 388 388 371 360 360 347 347 346 346 351 351 351 348 348 340 340 340 321 321 316 316 323 325 325 343 343 360 360 402 442 442 436 436 454 454 439 437 437 394 394 371 371 357 355 355 344 344 327 327 314 301 301 324 324 361 361 364 353 353 302 302 293 355 355 356 356 319 388 353 312 312 267 267 246 246 261 282 282 292 292 322 322 334 300 300 313 313 339 339 309 271 271 246 246 231 231 222 212 212 212 212 210 210 201 201 201 203 203 206 207 207 209 209 210 210 212 218 218 215 215 209 209 199 197 197 197 197 199 199 203 204 204 201 201 198 198 192 185 185 32767 32767
32767 341 341 354 354 364 364 383 408 408 410 410 422 422 437 444 444 417 417 388 388 371 360 360 347 347 346 346 351 351 351 348 348 340 340 340 321 321 316 316 323 325 325 343 343 360 360 402 442 442 436 436 454 454 439 437 437 394 394 371 371 357 355 355 344 344 327 327 314 301 301 324 324 361 364 364 353 353 302 302 293 355 355 356 356 319 319 294 258 258 244 244 238 238 249 260 260 272 272 277 277 279 273 273 285 285 285 285 262 254 254 239 239 220 220 214 209 209 204 204 203 194 194 194 194 197 197 199 199 199 201 201 204 204 209 210 210 207 207 202 202 194 192 192 197 197 199 199 203 204 204 201 201 198 198 192 185 185 32767 32767
32767 341 341 354 354 364 364 383 408 408 410 410 387 387 395 419 419 394 394 361 361 353 347 347 339 339 337 339 339 336 336 331 331 330 324 324 305 305 307 307 328 357 357 383 383 382 382 390 408 408 370 370 361 361 360 387 387 378 378 372 372 340 337 337 350 350 340 340 334 328 301 324 324 361 364 364 353 353 302 302 293 355 355 356 356 319 319 294 258 258 244 244 238 238 249 260 260 272 272 277 277 279 273 273 285 285 285 285 262 254 254 239 239 220 220 214 209 209 204 204 203 194 194 194 194 197 197 199 199 199 201 201 204 204 209 210 210 207 207 202 202 194 192 192 192 192 193 193 194 199 199 199 199 195 195 189 181 181 32767 32767
32767 341 341 354 354 364 364 383 408 408 410 410 387 387 395 419 419 394 394 361 361 353 347 347 339 339 337 339 339 336 336 331 331 330 324 324 305 305 307 307 328 357 357 383 383 382 382 390 408 408 370 370 361 361 360 387 387 378 378 372 372 340 337 337 350 350 340 334 334 328 328 301 301 347 344 344 331 331 313 313 274 295 295 297 297 261 261 243 232 232 226 226 230 230 236 236 236 242 242 247 247 251 252 252 259 259 245 245 233 232 232 224 224 209 201 201 199 199 199 199 200 195 195 189 189 191 191 199 199 199 201 201 204 204 209 210 210 207 207 202 202 194 192 192 192 192 193 193 194 199 199 199 199 195 195 189 181 181 32767 32767
32767 342 342 351 351 371 371 393 395 395 388 388 374 374 375 371 371 354 354 343 340 340 335 335 332 332 328 326 326 321 321 309 309 316 325 325 299 299 319 319 348 380 380 370 370 338 338 327 330 330 324 324 310 361 360 387 387 378 378 372 372 340 337 337 350 350 340 334 334 328 328 301 301 347 344 344 331 331 313 313 274 295 295 297 297 261 261 243 232 232 226 226 230 230 236 236 236 242 242 247 247 251 252 252 259 259 245 245 233 232 232 224 224 209 201 201 199 199 199 199 200 195 195 189 189 191 191 192 193 193 194 194 196 196 197 201 201 202 202 195 195 191 191 191 186 186 188 188 192 195 195 194 194 189 189 185 181 181 32767 32767
32767 342 342 351 351 371 371 393 395 395 388 388 374 374 375 371 371 354 354 343 340 340 335 335 332 332 328 326 326 321 321 309 309 316 325 325 299 299 319 319 348 380 380 370 370 338 338 327 330 330 324 324 310 310 316 320 320 325 325 340 340 313 301 301 323 323 308 309 309 316 316 280 280 293 294 294 297 297 294 294 278 261 261 252 252 248 248 250 248 248 221 221 220 220 223 224 224 225 225 227 227 231 231 231 231 231 229 229 219 213 232 224 224 209 201 201 199 199 199 199 200 195 195 189 189 191 191 192 193 193 194 194 196 196 197 201 201 202 202 195 195 191 191 191 186 186 188 188 192 195 195 194 194 189 185 185 181 181 32767 32767
32767 345 345 353 353 369 369 385 380 380 374 374 364 354 354 346 346 340 340 332 330 330 329 329 328 328 323 324 324 318 318 304 304 301 298 298 299 299 319 319 348 380 380 370 370 338 338 327 330 330 324 324 310 310 316 320 320 325 325 340 313 313 301 301 323 323 308 309 309 316 316 280 280 293 294 294 297 297 294 294 278 261 261 252 252 248 248 250 248 248 221 221 220 220 223 224 224 225 225 227 227 231 231 231 231 231 229 219 219 213 213 210 210 204 191 191 191 191 196 196 194 193 193 188 188 185 185 186 186 186 187 187 189 189 192 195 195 196 196 190 190 187 187 187 181 181 182 182 184 188 188 197 197 192 185 185 182 182 32767 32767
32767 345 345 353 353 369 369 385 380 380 374 374 364 354 354 346 346 340 340 332 330 330 329 329 328 328 323 324 324 318 318 304 304 301 298 298 287 287 287 287 316 353 353 362 362 353 353 322 303 303 289 289 286 286 290 289 289 289 289 294 291 291 281 281 280 280 268 277 277 264 264 262 262 265 292 292 280 280 265 265 251 270 270 277 277 280 280 266 244 244 221 221 211 211 223 224 224 225 225 227 227 231 231 231 231 231 229 219 219 213 213 210 210 204 191 191 191 191 196 196 194 193 193 188 188 185 185 186 186 186 187 187 189 189 192 195 195 196 196 190 190 187 187 187 181 181 182 182 184 188 188 197 197 192 185 185 182 182 32767 32767
32767 335 335 346 346 357 362 362 356 356 359 359 351 341 341 337 337 333 333 332 330 330 329 329 328 328 323 324 324 318 318 304 304 301 298 298 287 287 287 287 316 353 353 362 362 353 353 322 303 303 289 289 286 290 290 289 289 289 289 294 291 291 281 281 280 280 268 277 277 264 264 262 262 265 292 292 280 280 265 265 251 270 270 277 277 280 280 266 244 244 221 221 211 211 213 212 212 212 212 213 216 216 215 215 213 213 211 208 208 202 202 201 201 196 189 189 186 186 191 191 189 189 189 189 189 182 182 179 179 179 181 181 184 184 187 188 188 187 187 183 183 176 178 178 175 175 177 177 177 184 184 197 197 192 185 185 182 182 32767 32767
32767 335 335 346 346 357 362 362 356 356 359 359 351 341 341 337 337 333 333 326 323 323 331 331 339 339 334 336 336 338 338 336 336 315 305 305 312 312 299 299 278 278 278 292 292 330 330 334 305 305 279 279 266 265 265 273 273 269 269 263 263 263 276 276 241 241 241 264 264 264 264 272 272 269 267 267 264 280 265 265 251 270 270 277 277 280 280 266 244 244 221 221 211 211 213 212 212 212 212 213 216 216 215 215 213 213 211 208 208 202 202 201 201 196 189 189 186 186 191 191 189 189 189 189 189 182 182 179 179 179 181 181 184 184 187 188 188 187 187 183 183 176 178 178 175 175 177 177 177 184 184 189 189 191 184 184 181 181 32767 32767
32767 332 335 346 346 357 362 362 356 356 359 359 351 341 341 337 337 333 333 326 323 323 331 331 339 339 334 336 336 338 338 336 336 315 305 305 312 312 299 299 278 278 278 292 292 330 334 334 305 305 279 279 266 265 265 273 273 269 269 263 263 263 276 276 241 241 241 264 264 264 264 272 272 269 267 267 264 264 267 267 239 268 268 271 271 259 259 237 222 222 210 210 204 205 205 203 203 203 203 200 202 202 202 202 200 200 198 194 194 193 193 191 191 189 182 182 183 183 188 188 185 184 184 182 182 180 180 174 174 174 176 176 178 178 187 188 188 187 187 183 176 176 178 178 175 175 177 177 177 184 184 189 189 191 184 184 181 181 32767 32767
32767 332 332 336 336 340 344 344 342 342 340 340 336 331 331 327 327 324 324 320 318 318 327 327 342 342 341 338 338 354 354 353 353 333 326 326 336 336 329 329 323 296 296 272 272 260 296 296 293 293 284 284 265 256 256 260 260 253 253 248 263 263 276 276 241 241 241 264 264 264 264 272 272 269 267 267 264 264 267 267 239 268 268 271 271 259 259 237 222 222 210 210 204 205 205 203 203 203 203 200 202 202 202 202 200 200 198 194 194 193 193 191 191 189 182 182 183 183 188 188 185 184 184 182 182 180 180 174 174 174 176 176 178 178 180 181 181 181 181 179 174 174 173 173 172 172 172 171 171 175 175 180 180 188 188 188 178 178 32767 32767
32767 332 332 336 336 340 344 344 342 342 340 340 336 331 331 327 327 324 324 320 318 318 327 327 342 342 341 338 338 354 354 353 353 333 326 326 336 336 329 323 323 296 296 272 272 260 296 296 293 293 284 284 265 256 256 260 260 253 253 248 253 253 266 266 251 251 231 243 243 237 237 242 242 253 238 238 229 229 247 247 229 230 230 237 237 223 213 213 208 208 202 202 196 198 198 198 198 202 202 198 189 189 190 190 188 188 187 183 183 180 180 181 181 180 175 175 181 181 188 188 185 184 184 182 182 180 180 174 174 174 176 176 178 180 180 181 181 181 181 179 174 174 173 173 172 172 172 171 171 175 175 180 180 188 188 188 178 178 32767 32767
32767 324 324 330 330 332 334 334 335 335 328 328 324 323 323 318 318 317 317 313 316 316 325 325 339 339 344 346 346 351 351 361 361 366 335 335 313 313 303 318 318 328 328 272 272 260 296 296 293 293 284 284 265 256 256 260 260 253 253 248 253 253 266 266 251 251 231 243 243 237 237 242 242 253 238 238 229 229 247 247 229 230 230 237 237 223 213 213 208 208 202 202 196 198 198 198 198 202 202 198 189 189 190 190 188 188 187 183 183 180 180 181 181 180 175 175 181 181 184 184 180 179 179 177 177 175 175 173 170 170 169 169 172 173 173 173 173 174 174 177 177 177 172 172 170 170 167 165 165 167 167 170 170 184 188 188 179 179 32767 32767
32767 324 324 330 330 332 334 334 335 335 328 328 324 323 323 318 318 317 317 313 316 316 325 325 339 339 344 346 346 351 351 361 366 366 335 335 313 313 303 318 318 328 328 315 315 274 252 252 237 237 242 242 257 245 245 247 247 239 239 230 237 237 245 245 242 242 223 213 213 214 214 214 214 221 219 219 210 210 212 208 208 209 209 209 209 209 201 201 196 196 193 193 191 194 194 193 193 192 192 192 186 189 190 190 188 188 187 183 183 180 180 181 181 180 175 175 181 181 184 184 180 179 179 177 177 175 173 173 170 170 169 169 172 173 173 173 173 174 174 177 177 177 172 172 170 170 167 165 165 167 167 170 170 184 188 188 179 179 32767 32767
32767 316 316 322 322 323 320 320 319 319 318 318 312 313 313 310 310 310 310 310 317 317 328 328 342 342 344 346 346 351 351 361 366 366 335 335 313 313 303 318 318 328 328 315 315 274 252 252 237 237 242 242 257 245 245 247 247 239 239 230 237 237 245 245 242 242 223 213 213 214 214 214 214 221 219 219 210 210 212 208 208 209 209 209 209 209 201 201 196 196 193 193 191 194 194 193 193 192 192 192 186 186 180 180 181 181 179 175 175 171 171 171 171 168 170 170 175 175 175 175 174 172 172 171 171 170 171 171 166 166 164 164 164 165 165 168 168 168 168 175 173 173 170 170 166 166 162 162 162 161 161 165 165 175 179 179 175 175 32767 32767
32767 316 316 322 322 323 320 320 319 319 318 318 312 313 313 310 310 310 310 310 317 317 328 328 342 349 349 356 356 366 366 365 351 351 318 318 304 304 290 276 276 277 277 269 269 271 261 261 240 240 234 234 249 241 241 231 231 227 227 228 220 220 225 225 223 223 216 209 209 202 202 199 194 194 200 200 197 197 195 192 192 192 192 195 209 209 201 201 196 196 193 193 191 194 194 193 193 192 192 192 186 186 180 180 181 181 179 175 175 171 171 171 171 168 170 170 175 175 175 175 174 172 172 171 171 170 171 171 166 166 164 164 164 165 165 168 168 168 168 175 173 173 170 170 166 166 162 162 162 161 161 165 165 175 179 179 175 175 32767 32767
32767 317 317 318 318 319 314 314 307 307 318 318 312 313 313 310 310 310 310 310 317 317 328 328 342 349 349 356 356 366 366 365 351 351 318 318 304 304 290 276 276 277 277 269 269 271 261 261 240 240 234 234 249 241 241 231 231 227 227 228 220 220 225 225 223 223 216 209 209 202 202 199 194 194 200 200 197 197 195 192 192 192 192 195 195 198 191 191 185 185 180 180 185 186 186 186 186 184 184 184 182 182 176 176 172 172 172 171 171 167 167 166 166 162 167 167 169 169 168 169 169 168 168 168 168 166 166 166 164 164 162 162 158 157 157 159 159 162 162 161 163 173 170 170 166 166 162 162 162 161 161 165 165 175 179 179 175 175 32767 32767
32767 317 317 318 318 319 314 314 307 307 305 305 304 304 304 304 304 304 311 311 320 320 329 329 338 345 345 347 347 367 367 370 328 328 309 309 299 299 280 280 280 284 284 272 272 254 240 240 249 249 243 243 225 224 224 231 231 216 216 214 209 209 204 204 211 210 210 209 209 202 202 199 194 194 200 200 197 197 195 192 192 192 192 195 195 198 191 191 185 185 180 180 185 186 186 186 186 184 184 184 182 182 176 176 172 172 172 171 171 167 167 166 166 162 167 167 169 169 168 169 169 168 168 168 168 166 166 166 164 164 162 162 158 157 157 159 159 162 162 161 163 163 160 160 157 157 155 157 157 158 158 160 160 164 169 169 169 169 32767 32767
32767 317 317 318 318 319 314 314 307 307 305 305 304 304 304 304 304 304 311 311 320 320 329 329 338 345 345 347 347 367 367 370 328 328 309 309 299 299 280 280 280 284 284 272 272 254 240 240 249 249 243 243 225 224 224 231 231 216 216 214 209 209 204 204 211 210 210 206 206 202 202 198 189 189 187 187 189 189 187 184 184 180 180 185 185 187 184 184 177 177 177 177 177 179 179 178 178 177 177 176 170 170 165 165 162 162 163 166 166 163 163 160 159 159 164 164 164 164 164 167 167 164 164 163 163 166 166 166 164 164 162 162 158 157 157 159 159 162 162 161 163 163 160 160 157 157 155 157 157 158 158 160 160 164 169 169 169 169 32767 32767
32767 316 316 313 313 309 305 305 301 301 296 296 296 296 296 297 297 303 312 312 325 325 342 342 366 372 372 358 358 355 355 353 344 344 315 315 303 303 313 331 331 316 316 302 302 279 250 250 233 233 243 243 225 224 224 231 231 216 214 214 209 209 204 204 211 210 210 206 206 202 202 198 189 189 187 187 189 189 187 184 184 180 180 185 185 187 184 184 177 177 177 177 177 179 179 178 178 177 177 176 170 170 165 165 162 162 163 166 166 163 163 160 159 159 164 164 164 164 164 167 167 164 164 163 163 162 160 160 157 157 160 160 157 153 153 152 152 154 154 155 153 153 152 152 151 151 150 153 153 156 156 166 166 165 165 165 162 162 32767 32767
32767 316 316 313 313 309 305 305 301 301 296 296 296 296 296 297 297 303 312 312 325 325 342 342 366 372 372 358 358 355 355 353 344 344 315 315 303 303 313 331 331 316 316 302 302 279 250 250 233 233 231 231 237 225 225 206 206 212 209 209 199 199 195 195 206 218 218 204 204 197 197 193 192 192 183 183 187 187 181 177 177 172 172 176 176 176 174 174 169 169 172 172 169 171 171 173 173 172 172 170 164 164 159 159 156 156 156 157 166 163 163 160 159 159 164 164 164 164 164 167 167 164 164 163 163 162 160 160 157 157 160 160 157 153 153 152 152 154 154 155 153 153 152 152 151 151 150 153 153 156 156 166 165 165 165 165 162 162 32767 32767
32767 304 304 301 295 295 293 293 292 292 290 294 294 297 297 299 299 307 317 317 326 326 339 339 361 380 380 365 365 340 340 327 310 344 315 315 303 303 313 331 331 316 316 302 302 279 250 250 233 233 231 237 237 225 225 206 206 212 209 209 199 199 195 195 206 218 218 204 204 197 197 193 192 192 183 183 187 187 181 177 177 172 172 176 176 176 174 174 169 169 172 172 169 171 171 173 173 172 172 170 164 164 159 159 156 156 156 157 157 157 157 153 156 156 158 158 159 159 159 160 160 156 156 153 153 155 155 155 151 151 150 150 150 149 149 146 146 147 147 148 148 148 145 145 144 144 147 150 150 154 154 164 171 171 166 166 160 160 32767 32767
32767 304 304 301 295 295 293 293 292 292 290 294 294 297 297 299 299 307 317 317 326 326 339 339 361 380 380 365 365 340 340 327 310 310 306 306 310 310 312 317 317 277 277 274 274 250 234 234 230 230 223 219 219 223 223 206 206 195 193 193 193 193 192 192 198 216 216 204 204 197 197 191 182 182 180 180 176 176 178 171 171 166 166 168 168 168 165 165 163 163 164 172 169 171 171 173 173 172 170 170 164 164 159 159 156 156 156 157 157 157 157 153 156 156 158 158 159 159 159 160 160 156 156 153 153 155 155 155 151 151 150 150 150 149 149 146 146 147 147 148 148 148 145 145 144 147 147 150 150 154 154 164 171 171 166 166 160 160 32767 32767
32767 296 296 290 287 287 286 286 286 286 288 293 293 298 298 302 302 307 317 317 326 326 339 339 361 380 380 365 365 340 340 327 310 310 306 306 310 310 312 317 317 277 277 274 250 250 234 234 230 230 223 219 219 223 223 206 206 195 193 193 193 193 192 192 198 216 216 204 204 197 197 191 182 182 180 180 176 176 178 171 171 166 166 168 168 168 165 165 163 163 164 164 164 165 165 167 167 166 164 164 160 160 156 156 154 151 151 150 150 148 148 150 152 152 153 153 158 158 156 153 153 151 151 148 148 151 150 150 147 147 144 144 147 148 148 148 148 142 142 143 142 142 139 139 141 145 145 144 144 154 154 164 171 171 166 166 160 160 32767 32767
32767 296 296 290 287 287 286 286 286 286 288 293 293 298 298 302 302 308 316 316 325 325 334 334 347 369 369 382 382 382 382 368 329 329 298 298 283 283 271 273 273 259 259 241 236 236 229 229 218 218 212 203 203 209 209 210 210 194 188 188 184 184 184 184 199 200 200 197 197 201 201 192 183 183 180 180 176 176 178 171 171 166 166 168 168 168 165 165 163 163 164 164 164 165 165 167 167 166 164 164 160 160 156 156 154 151 151 150 150 148 148 150 152 152 153 153 158 158 156 153 153 151 151 148 148 151 150 150 147 147 144 144 147 148 148 148 148 142 142 143 142 142 139 139 141 145 145 144 144 148 148 160 165 165 161 161 157 157 32767 32767
32767 296 296 290 287 287 286 286 286 286 288 293 293 298 298 302 302 308 316 316 325 325 334 334 347 369 369 382 382 382 382 368 329 329 298 298 283 271 271 273 273 259 259 241 236 236 229 229 218 218 212 203 203 209 209 210 210 194 188 188 184 184 184 184 199 200 200 197 197 201 201 192 183 183 177 177 167 167 170 167 167 163 163 160 160 159 157 157 156 156 156 158 158 160 160 160 160 157 157 157 156 156 153 153 149 146 146 145 145 144 144 146 147 147 148 148 152 152 155 152 152 147 147 145 145 145 144 144 142 142 142 142 147 148 148 148 148 142 143 143 142 142 139 139 141 145 145 144 144 148 148 160 165 165 161 161 157 157 32767 32767
32767 292 292 283 280 280 279 279 280 280 284 289 289 294 294 300 300 305 312 312 321 321 333 333 335 347 347 348 348 354 354 341 353 353 354 354 332 303 303 276 276 259 259 252 245 245 234 234 224 224 216 204 204 194 194 201 201 194 188 188 184 184 184 184 199 200 200 197 197 201 201 192 183 183 177 177 167 167 170 167 167 163 163 160 159 159 157 157 156 156 156 158 158 160 160 160 160 157 157 157 156 156 153 153 149 146 146 145 145 144 144 146 147 147 148 148 152 152 155 152 152 147 147 145 145 145 144 144 142 142 142 142 142 140 140 140 140 138 135 135 136 136 140 140 139 141 141 142 142 142 142 146 155 155 156 156 151 151 32767 32767
32767 292 292 283 280 280 279 279 280 280 284 289 289 294 294 300 300 305 312 312 321 321 333 333 335 347 347 348 348 354 341 341 353 353 354 354 332 303 303 276 276 259 259 252 245 245 234 234 224 224 216 204 204 194 194 201 201 196 185 185 180 180 180 180 195 196 196 186 186 205 205 216 208 208 195 195 169 169 162 162 162 160 160 156 152 152 152 152 151 151 151 154 154 153 153 153 153 153 152 152 151 151 149 149 146 142 142 139 139 139 139 142 142 142 142 148 152 152 155 152 152 147 147 145 145 145 144 144 142 142 142 142 142 140 140 140 140 138 135 135 136 136 140 140 139 141 141 142 142 142 142 146 155 155 156 156 151 151 32767 32767
32767 292 292 280 275 275 277 277 279 279 283 288 288 293 293 301 301 312 323 323 334 334 347 347 342 323 323 313 313 317 326 326 347 347 364 364 349 309 309 294 294 259 259 252 245 245 234 234 224 224 216 204 204 194 194 201 201 196 185 185 180 180 180 180 195 196 196 186 186 205 205 216 208 208 195 195 169 162 162 162 162 160 160 156 152 152 152 152 151 151 151 154 154 153 153 153 153 153 152 152 151 151 149 149 146 142 142 139 139 139 139 142 142 142 142 142 144 144 146 142 142 142 142 139 139 138 134 134 134 134 134 133 133 135 135 134 134 130 128 128 133 133 134 134 134 136 136 139 139 144 144 145 154 154 152 152 147 147 32767 32767
32767 292 292 280 275 275 277 277 279 279 283 288 288 293 293 301 301 312 323 323 334 334 347 342 342 323 323 313 313 317 326 326 347 347 364 364 349 309 309 294 294 286 286 271 255 255 242 242 231 231 213 200 200 191 191 187 187 186 183 183 175 175 179 179 197 204 204 181 181 203 203 204 191 191 183 183 169 163 163 157 157 153 153 153 150 150 146 146 145 145 145 146 146 146 146 148 148 147 152 152 151 151 149 149 146 142 142 139 139 139 139 142 142 142 142 142 144 144 146 142 142 142 142 139 138 138 134 134 134 134 134 133 133 135 135 134 134 130 128 128 133 133 134 134 134 136 136 139 139 144 144 145 154 154 152 152 147 147 32767 32767
32767 283 283 276 271 271 274 274 277 277 283 289 289 297 297 312 312 322 326 326 326 326 323 328 342 323 323 313 313 317 326 326 347 347 364 364 349 309 309 294 294 286 286 271 255 255 242 242 231 231 213 200 200 191 191 187 187 186 183 183 175 175 179 179 197 204 204 181 181 203 204 204 191 191 183 183 169 163 163 157 157 153 153 153 150 150 146 146 145 145 145 146 146 146 146 148 148 147 144 144 144 144 146 146 141 137 137 136 136 136 136 138 137 137 138 138 140 140 141 135 135 134 134 134 129 129 129 129 132 132 133 133 133 131 131 130 130 125 127 127 130 130 131 131 134 143 143 144 144 148 148 144 149 149 147 147 147 147 32767 32767
32767 283 283 276 271 271 274 274 277 277 283 289 289 297 297 312 322 322 326 326 326 326 323 328 328 320 320 299 299 307 335 335 350 350 360 360 357 330 330 308 308 300 300 272 252 252 247 247 245 245 231 205 205 192 192 184 184 178 174 174 169 169 178 178 199 182 182 164 164 157 155 155 153 153 158 158 161 153 153 150 150 153 153 153 150 150 146 146 145 145 145 146 146 146 146 148 148 147 144 144 144 144 146 146 141 137 137 136 136 136 136 138 137 137 138 138 140 141 141 135 135 134 134 134 129 129 129 129 132 132 133 133 133 131 131 130 130 125 127 127 130 130 131 131 134 143 143 144 144 148 148 144 149 149 147 147 145 145 32767 32767
